ncols        101
nrows        52
xllcorner    4476996.70914
yllcorner    8275895.14528
cellsize     30.000000000000
NODATA_value -99999
1022.33673095703125 1029.05615234375 1037.2589111328125 1042.931396484375 1049.12890625 1052.823974609375 1055.7149658203125 1057.1026611328125 1057.5557861328125 1064.6258544921875 1069.243408203125 1082.0799560546875 1087.038330078125 1089.4412841796875 1085.605224609375 1080.5587158203125 1088.031005859375 1094.0499267578125 1099.8162841796875 1097.95556640625 1091.3507080078125 1084.9056396484375 1081.9000244140625 1085.0098876953125 1091.7005615234375 1100.7608642578125 1110.5699462890625 1117.2037353515625 1122.257080078125 1131.2711181640625 1143.3558349609375 1151.616455078125 1153.04931640625 1153.01318359375 1152.6409912109375 1151.7431640625 1151.43212890625 1151.179931640625 1150.98681640625 1150.6907958984375 1149.614990234375 1148.1317138671875 1146.97119140625 1146.523681640625 1145.8489990234375 1144.590087890625 1139.637939453125 1132.167236328125 1121.5885009765625 1108.0240478515625 1096.048828125 1085.0562744140625 1075.8917236328125 1063.8353271484375 1051.0054931640625 1046.1553955078125 1046.0274658203125 1048.28857421875 1048.5059814453125 1050.966064453125 1054.3201904296875 1059.3482666015625 1064.6224365234375 1069.298583984375 1075.4732666015625 1080.9521484375 1088.364990234375 1093.8345947265625 1099.099609375 1103.7171630859375 1107.2794189453125 1111.09423828125 1115.62060546875 1120.5106201171875 1131.361572265625 1138.1507568359375 1143.11376953125 1147.032958984375 1149.715087890625 1151.5465087890625 1152.445556640625 1153.1480712890625 1153.7408447265625 1154.1942138671875 1154.4815673828125 1154.593017578125 1154.5723876953125 1154.5169677734375 1154.4481201171875 1154.233642578125 1153.7132568359375 1152.9158935546875 1152.051025390625 1151.408935546875 1150.9461669921875 1150.743896484375 1150.6915283203125 1150.604248046875 1150.310302734375 1149.5430908203125 1148.1844482421875
1017.65814208984375 1021.67559814453125 1028.572265625 1037.55078125 1042.488037109375 1046.555419921875 1051.5028076171875 1055.592041015625 1060.1513671875 1064.60205078125 1069.4193115234375 1077.1798095703125 1080.4306640625 1080.9014892578125 1075.455078125 1071.4708251953125 1078.7489013671875 1084.945556640625 1090.359130859375 1086.3782958984375 1078.6324462890625 1071.6806640625 1070.8060302734375 1076.2069091796875 1082.3070068359375 1089.6368408203125 1099.7576904296875 1103.980712890625 1114.896728515625 1121.923828125 1133.632568359375 1148.25537109375 1153.0120849609375 1153.147705078125 1152.945068359375 1152.159912109375 1151.8179931640625 1151.57861328125 1151.3328857421875 1151.0810546875 1150.5391845703125 1149.4554443359375 1148.2613525390625 1147.4273681640625 1146.3917236328125 1145.3209228515625 1143.398681640625 1139.4862060546875 1130.0308837890625 1117.8104248046875 1104.5072021484375 1089.6463623046875 1079.475341796875 1067.2603759765625 1055.2811279296875 1045.3536376953125 1040.20458984375 1039.3875732421875 1041.6947021484375 1047.474365234375 1054.7342529296875 1062.5806884765625 1068.6961669921875 1073.8680419921875 1077.8509521484375 1082.2242431640625 1087.502197265625 1092.5181884765625 1099.046142578125 1104.970458984375 1107.8485107421875 1110.752197265625 1115.357421875 1121.2349853515625 1129.7412109375 1136.67578125 1142.3282470703125 1146.9613037109375 1149.8880615234375 1151.58642578125 1152.6439208984375 1153.4903564453125 1154.1724853515625 1154.66748046875 1154.9686279296875 1155.1060791015625 1155.2528076171875 1155.287353515625 1155.227783203125 1155.0513916015625 1154.5208740234375 1153.8836669921875 1153.054931640625 1152.514404296875 1152.1175537109375 1151.9521484375 1151.8009033203125 1151.6676025390625 1151.1324462890625 1150.4072265625 1148.9658203125
1018.1458740234375 1019.0308837890625 1021.82275390625 1028.5152587890625 1032.073974609375 1037.175537109375 1043.079833984375 1048.2783203125 1055.649658203125 1061.535888671875 1067.1854248046875 1071.766357421875 1074.416748046875 1070.6561279296875 1064.392333984375 1062.5745849609375 1068.92578125 1076.7459716796875 1080.790283203125 1075.552001953125 1066.24462890625 1060.402587890625 1062.8638916015625 1069.1392822265625 1073.121337890625 1082.111328125 1088.7037353515625 1096.6907958984375 1104.9964599609375 1115.4034423828125 1128.8443603515625 1145.0015869140625 1152.4515380859375 1153.2056884765625 1153.1331787109375 1152.4107666015625 1152.2125244140625 1151.9188232421875 1151.6201171875 1151.355224609375 1150.8631591796875 1149.898193359375 1148.8831787109375 1147.8883056640625 1146.88232421875 1145.8070068359375 1144.03857421875 1142.3743896484375 1136.0257568359375 1124.667236328125 1108.8802490234375 1093.5538330078125 1081.76611328125 1070.6279296875 1060.28955078125 1045.568115234375 1035.9229736328125 1033.8199462890625 1038.9625244140625 1049.647705078125 1059.747802734375 1068.7774658203125 1075.5203857421875 1080.74267578125 1083.90283203125 1087.8270263671875 1092.364013671875 1097.6356201171875 1104.6190185546875 1111.08837890625 1114.401611328125 1115.47607421875 1117.3343505859375 1121.7952880859375 1127.414306640625 1133.224609375 1139.8380126953125 1145.6875 1149.4967041015625 1151.3477783203125 1152.6317138671875 1153.64306640625 1154.4852294921875 1155.062744140625 1155.39013671875 1155.52490234375 1155.8468017578125 1155.9010009765625 1155.875732421875 1155.71923828125 1155.21826171875 1154.9022216796875 1154.2034912109375 1153.7249755859375 1153.2821044921875 1153.092041015625 1152.918212890625 1152.5496826171875 1151.8131103515625 1150.967529296875 1149.50048828125
1021.6490478515625 1021.23065185546875 1021.29888916015625 1023.660888671875 1026.44384765625 1030.5142822265625 1035.6910400390625 1041.677978515625 1050.2445068359375 1056.197021484375 1064.78515625 1068.044677734375 1068.00439453125 1059.735595703125 1053.8839111328125 1055.1064453125 1062.0611572265625 1071.4390869140625 1073.51611328125 1064.692626953125 1055.5635986328125 1051.1800537109375 1055.9085693359375 1060.833984375 1067.3724365234375 1076.05078125 1082.10791015625 1090.603271484375 1098.4288330078125 1112.60498046875 1128.15966796875 1141.84814453125 1150.4404296875 1152.785888671875 1152.9486083984375 1152.637939453125 1152.4832763671875 1152.20751953125 1151.907470703125 1151.528564453125 1150.9521484375 1150.0625 1149.0966796875 1147.9801025390625 1146.976318359375 1145.9884033203125 1144.2806396484375 1142.716064453125 1137.5731201171875 1125.8563232421875 1109.61767578125 1096.4261474609375 1084.1546630859375 1074.1832275390625 1062.577880859375 1046.348876953125 1032.0379638671875 1031.103759765625 1038.324462890625 1053.092529296875 1063.9552001953125 1073.663330078125 1080.969970703125 1085.385498046875 1091.13720703125 1096.2537841796875 1100.9156494140625 1106.335693359375 1113.9991455078125 1120.27099609375 1123.8914794921875 1123.266845703125 1122.482421875 1123.5906982421875 1127.064208984375 1131.610107421875 1136.9664306640625 1143.0423583984375 1148.0845947265625 1150.9388427734375 1152.3984375 1153.7618408203125 1154.77001953125 1155.388427734375 1155.688720703125 1156.015869140625 1156.396484375 1156.5023193359375 1156.488037109375 1156.372802734375 1156.0526123046875 1155.865478515625 1155.3583984375 1154.8841552734375 1154.45556640625 1154.2796630859375 1154.0234375 1153.4251708984375 1152.622802734375 1151.6746826171875 1150.2718505859375
1026.0308837890625 1025.403564453125 1024.662353515625 1025.1968994140625 1025.70458984375 1027.885009765625 1031.8837890625 1037.580810546875 1046.174072265625 1053.381591796875 1064.63720703125 1065.392333984375 1059.2724609375 1049.8577880859375 1045.5693359375 1048.6114501953125 1057.7164306640625 1066.599609375 1066.7667236328125 1056.5501708984375 1047.4903564453125 1043.8798828125 1048.4725341796875 1054.343505859375 1063.0081787109375 1069.74853515625 1076.934326171875 1084.922119140625 1096.7139892578125 1110.09521484375 1123.739501953125 1136.2186279296875 1146.40771484375 1150.8785400390625 1152.1219482421875 1152.5128173828125 1152.36572265625 1152.1741943359375 1151.868408203125 1151.43115234375 1150.9024658203125 1150.1103515625 1149.2724609375 1148.0592041015625 1146.955810546875 1145.83251953125 1144.2806396484375 1142.2919921875 1135.3377685546875 1123.4798583984375 1110.0147705078125 1097.729248046875 1086.1986083984375 1075.0023193359375 1062.6639404296875 1047.2857666015625 1029.6307373046875 1030.054931640625 1037.64111328125 1053.287841796875 1063.8353271484375 1074.2327880859375 1083.6993408203125 1088.5103759765625 1095.28173828125 1103.09619140625 1108.264404296875 1114.4686279296875 1123.6641845703125 1129.0946044921875 1132.18994140625 1131.556640625 1130.7677001953125 1130.0147705078125 1131.147216796875 1132.751708984375 1136.2171630859375 1140.777587890625 1145.7188720703125 1149.43115234375 1152.111328125 1153.8719482421875 1155.055908203125 1155.6805419921875 1156.07275390625 1156.4803466796875 1156.8577880859375 1157.0391845703125 1157.052001953125 1157.0079345703125 1156.8958740234375 1156.72705078125 1156.44482421875 1155.943115234375 1155.602294921875 1155.2579345703125 1154.98681640625 1154.4085693359375 1153.6170654296875 1152.6356201171875 1151.5087890625
1032.36572265625 1030.5875244140625 1030.196533203125 1029.580322265625 1028.9735107421875 1029.3182373046875 1031.6689453125 1036.801025390625 1044.326171875 1053.5797119140625 1064.800048828125 1064.1466064453125 1054.8677978515625 1043.954345703125 1040.6611328125 1042.8336181640625 1052.3604736328125 1058.244384765625 1057.871337890625 1050.9815673828125 1041.708740234375 1037.945556640625 1041.9970703125 1049.8218994140625 1056.567626953125 1064.122802734375 1072.451171875 1081.2637939453125 1091.739013671875 1103.4381103515625 1115.12060546875 1127.11669921875 1138.833251953125 1145.390869140625 1148.8668212890625 1150.049072265625 1150.2528076171875 1150.187255859375 1150.226318359375 1150.2899169921875 1150.3853759765625 1149.7933349609375 1149.102783203125 1147.891357421875 1146.6749267578125 1145.3026123046875 1143.7530517578125 1139.9285888671875 1130.0927734375 1117.6505126953125 1105.31298828125 1093.7401123046875 1083.160400390625 1071.206787109375 1058.940673828125 1044.138671875 1029.386474609375 1029.4173583984375 1035.736083984375 1051.4725341796875 1061.1966552734375 1070.6298828125 1081.124267578125 1088.2032470703125 1095.839599609375 1105.258056640625 1113.8857421875 1122.084228515625 1130.1966552734375 1134.4541015625 1137.5582275390625 1138.2144775390625 1138.6307373046875 1138.397216796875 1138.0440673828125 1137.0782470703125 1138.3067626953125 1141.755615234375 1145.6395263671875 1148.3072509765625 1151.701904296875 1154.019287109375 1155.27197265625 1156.014892578125 1156.5333251953125 1156.9046630859375 1157.25537109375 1157.5179443359375 1157.55126953125 1157.570556640625 1157.5919189453125 1157.5048828125 1157.2802734375 1156.9495849609375 1156.5684814453125 1156.201171875 1155.9044189453125 1155.427978515625 1154.708740234375 1153.765869140625 1152.7803955078125
1040.4669189453125 1037.61474609375 1035.961669921875 1034.305419921875 1033.6195068359375 1032.76708984375 1034.9326171875 1041.005126953125 1048.0372314453125 1056.25634765625 1065.5283203125 1064.32568359375 1058.2060546875 1041.7767333984375 1036.936767578125 1037.5057373046875 1044.4359130859375 1048.71875 1048.4716796875 1043.5203857421875 1035.2816162109375 1033.1334228515625 1036.832275390625 1044.1854248046875 1051.714111328125 1060.70849609375 1070.69580078125 1077.3731689453125 1085.685546875 1096.0513916015625 1106.7706298828125 1114.8470458984375 1128.2999267578125 1133.418701171875 1139.05810546875 1140.5621337890625 1141.7166748046875 1142.7567138671875 1146.240478515625 1146.881103515625 1148.981201171875 1148.92626953125 1148.531494140625 1147.5682373046875 1146.3446044921875 1144.930908203125 1143.083740234375 1137.590087890625 1124.9832763671875 1111.482177734375 1098.5025634765625 1087.64404296875 1077.30517578125 1066.5262451171875 1053.570068359375 1040.728759765625 1029.9830322265625 1027.294189453125 1032.12109375 1048.2115478515625 1057.85498046875 1066.4822998046875 1075.6009521484375 1084.541015625 1093.2393798828125 1103.1060791015625 1115.65576171875 1125.66162109375 1133.0394287109375 1137.239013671875 1140.03125 1141.4903564453125 1142.398193359375 1143.06396484375 1143.5048828125 1143.1484375 1142.7169189453125 1145.0137939453125 1147.4873046875 1149.395263671875 1152.0675048828125 1154.1844482421875 1155.3936767578125 1156.2957763671875 1156.8690185546875 1157.3260498046875 1157.68408203125 1157.953857421875 1158.0628662109375 1158.1373291015625 1158.27685546875 1158.229736328125 1158.020263671875 1157.865478515625 1157.456298828125 1157.191650390625 1156.826904296875 1156.40625 1155.78466796875 1154.975830078125 1154.05224609375
1047.6500244140625 1046.1676025390625 1042.177490234375 1039.4248046875 1038.67724609375 1039.0689697265625 1041.1708984375 1048.4229736328125 1054.4598388671875 1060.314453125 1066.5867919921875 1065.3604736328125 1060.5234375 1042.9801025390625 1035.082763671875 1032.9754638671875 1035.8345947265625 1038.5059814453125 1038.4306640625 1033.8338623046875 1028.302001953125 1029.1802978515625 1032.9747314453125 1040.0714111328125 1048.635498046875 1057.94384765625 1066.0914306640625 1073.53857421875 1080.5146484375 1088.9654541015625 1097.7845458984375 1104.936767578125 1114.04248046875 1116.697998046875 1123.5538330078125 1124.81689453125 1127.478515625 1129.140625 1135.8934326171875 1142.440185546875 1145.9619140625 1147.921630859375 1147.485595703125 1146.9254150390625 1146.074462890625 1144.8890380859375 1142.7222900390625 1137.1641845703125 1123.4970703125 1109.9212646484375 1097.22265625 1085.435546875 1076.42724609375 1063.5550537109375 1051.7967529296875 1039.57470703125 1028.1988525390625 1023.18914794921875 1028.2862548828125 1043.2239990234375 1053.8201904296875 1062.609619140625 1071.681396484375 1080.3316650390625 1088.165283203125 1099.8804931640625 1112.718505859375 1123.2098388671875 1131.7845458984375 1137.4725341796875 1140.3544921875 1142.0435791015625 1142.878173828125 1144.4168701171875 1145.6014404296875 1146.147216796875 1146.8497314453125 1147.7635498046875 1148.862548828125 1151.1810302734375 1153.3446044921875 1154.5640869140625 1155.680419921875 1156.5169677734375 1157.1474609375 1157.6705322265625 1158.079833984375 1158.353271484375 1158.5543212890625 1158.6890869140625 1158.83349609375 1158.8651123046875 1158.79296875 1158.6163330078125 1158.3914794921875 1158.0350341796875 1157.6767578125 1157.3145751953125 1156.812744140625 1156.080810546875 1155.2332763671875
1052.1636962890625 1053.1636962890625 1050.2718505859375 1046.494873046875 1044.668212890625 1047.5966796875 1049.3209228515625 1054.8740234375 1058.18359375 1062.54736328125 1066.7059326171875 1067.7320556640625 1063.0162353515625 1050.18408203125 1038.4346923828125 1030.962646484375 1029.0899658203125 1028.7711181640625 1028.5074462890625 1024.9471435546875 1022.99017333984375 1024.9158935546875 1030.611083984375 1037.4461669921875 1045.18017578125 1052.878173828125 1060.3092041015625 1067.52197265625 1073.8516845703125 1080.9365234375 1088.44580078125 1096.6910400390625 1096.7430419921875 1100.0645751953125 1107.4844970703125 1109.5006103515625 1113.0933837890625 1114.384033203125 1120.7401123046875 1134.4739990234375 1140.7813720703125 1146.7880859375 1146.6693115234375 1146.544921875 1145.754150390625 1144.625244140625 1142.5621337890625 1136.7352294921875 1123.0592041015625 1110.0108642578125 1097.4061279296875 1085.077392578125 1076.289794921875 1062.4703369140625 1049.8927001953125 1034.81201171875 1022.36920166015625 1020.62615966796875 1025.2900390625 1037.0535888671875 1048.660888671875 1058.1759033203125 1067.5333251953125 1075.0771484375 1085.387939453125 1096.9410400390625 1108.178466796875 1117.5863037109375 1125.601318359375 1132.989013671875 1137.3505859375 1140.7745361328125 1142.3140869140625 1144.27392578125 1146.14111328125 1147.09912109375 1148.22998046875 1149.64990234375 1150.9805908203125 1152.5657958984375 1154.066162109375 1155.251953125 1156.10009765625 1156.783203125 1157.38037109375 1157.9674072265625 1158.3968505859375 1158.6905517578125 1158.9029541015625 1159.1041259765625 1159.247802734375 1159.246337890625 1159.210205078125 1159.1185302734375 1159.0078125 1158.7056884765625 1158.3975830078125 1158.125 1157.6280517578125 1157.033935546875 1156.2073974609375
1052.6363525390625 1057.3553466796875 1056.3017578125 1053.180419921875 1051.5648193359375 1052.829345703125 1055.298095703125 1055.6595458984375 1056.3353271484375 1060.366943359375 1065.471923828125 1069.31494140625 1067.8001708984375 1058.755859375 1045.0411376953125 1034.559814453125 1027.7574462890625 1023.77587890625 1021.72613525390625 1019.509765625 1018.6785888671875 1021.44696044921875 1030.4508056640625 1036.48193359375 1042.8101806640625 1049.02978515625 1056.1971435546875 1062.6405029296875 1068.1767578125 1074.3863525390625 1080.5380859375 1083.6651611328125 1083.2991943359375 1084.7896728515625 1091.592529296875 1095.21484375 1098.5933837890625 1102.5263671875 1110.77490234375 1121.2755126953125 1134.4427490234375 1145.4566650390625 1146.8709716796875 1147.044677734375 1145.81591796875 1144.417236328125 1142.515869140625 1136.517333984375 1121.1728515625 1107.984619140625 1095.639892578125 1084.53125 1072.391845703125 1061.48388671875 1046.090087890625 1031.580810546875 1019.0330810546875 1019.80126953125 1023.61077880859375 1033.809814453125 1044.21630859375 1054.1868896484375 1062.661865234375 1070.81103515625 1081.6898193359375 1091.6295166015625 1101.598876953125 1109.5701904296875 1117.94580078125 1125.3782958984375 1131.0689697265625 1134.9029541015625 1137.40087890625 1141.456787109375 1145.1795654296875 1147.588134765625 1149.166259765625 1150.5943603515625 1151.898681640625 1153.3187255859375 1154.6175537109375 1155.6395263671875 1156.234619140625 1156.980712890625 1157.6041259765625 1158.1253662109375 1158.633056640625 1158.9349365234375 1159.18701171875 1159.377685546875 1159.5281982421875 1159.52783203125 1159.48779296875 1159.428955078125 1159.4163818359375 1159.323486328125 1159.1416015625 1158.7977294921875 1158.224365234375 1157.684814453125 1157.0189208984375
1052.7486572265625 1058.511474609375 1059.3489990234375 1058.3035888671875 1057.1427001953125 1054.5545654296875 1052.7353515625 1050.0867919921875 1048.8216552734375 1053.0792236328125 1060.9495849609375 1067.2056884765625 1069.552001953125 1064.9652099609375 1053.5772705078125 1043.978759765625 1033.5498046875 1023.8275146484375 1019.3297119140625 1016.296142578125 1015.6912841796875 1019.76312255859375 1030.643798828125 1037.757568359375 1044.1553955078125 1049.54443359375 1054.968505859375 1059.5980224609375 1064.56201171875 1067.27734375 1070.54248046875 1069.48095703125 1069.8062744140625 1071.667724609375 1077.6995849609375 1082.4600830078125 1086.4052734375 1093.0806884765625 1102.099609375 1113.1258544921875 1128.9921875 1144.759765625 1146.703857421875 1146.7330322265625 1145.6351318359375 1144.1455078125 1142.1649169921875 1136.0018310546875 1117.28857421875 1103.3155517578125 1090.9942626953125 1080.2271728515625 1067.3970947265625 1058.52734375 1043.866455078125 1031.4517822265625 1018.59539794921875 1019.15374755859375 1025.2711181640625 1035.6768798828125 1043.6253662109375 1052.5318603515625 1059.1236572265625 1067.9190673828125 1075.44140625 1085.7791748046875 1093.9058837890625 1101.58984375 1110.1434326171875 1117.1214599609375 1122.1148681640625 1124.091064453125 1128.957275390625 1135.140869140625 1141.9093017578125 1147.223876953125 1149.505859375 1150.782958984375 1152.18115234375 1153.687744140625 1154.919921875 1155.74072265625 1156.341796875 1157.04638671875 1157.6610107421875 1158.0869140625 1158.685791015625 1159.1031494140625 1159.36328125 1159.5648193359375 1159.7579345703125 1159.885986328125 1159.948974609375 1159.97509765625 1160.0206298828125 1159.9595947265625 1159.746337890625 1159.3839111328125 1158.8797607421875 1158.231689453125 1157.6207275390625
1050.8907470703125 1054.9383544921875 1057.8670654296875 1056.101318359375 1055.0560302734375 1049.865966796875 1044.2415771484375 1040.3154296875 1042.236328125 1049.5577392578125 1057.10009765625 1063.2984619140625 1070.760986328125 1068.9046630859375 1061.206298828125 1052.680419921875 1041.243896484375 1030.4144287109375 1022.14154052734375 1015.8326416015625 1014.11669921875 1018.40576171875 1030.6502685546875 1038.265380859375 1045.5848388671875 1049.9000244140625 1055.642333984375 1059.1986083984375 1061.04638671875 1057.6473388671875 1055.24853515625 1054.4453125 1056.221923828125 1060.429931640625 1067.49853515625 1072.17529296875 1078.5621337890625 1085.4293212890625 1093.7392578125 1107.82958984375 1125.8367919921875 1143.1478271484375 1146.5206298828125 1146.32666015625 1145.35693359375 1143.48779296875 1141.7142333984375 1135.7958984375 1117.598388671875 1102.555908203125 1087.5611572265625 1076.4368896484375 1063.2703857421875 1052.576904296875 1042.173583984375 1029.0849609375 1017.87664794921875 1018.91839599609375 1029.1820068359375 1037.883056640625 1048.3431396484375 1056.8787841796875 1060.06884765625 1066.8326416015625 1072.94873046875 1080.4598388671875 1085.69921875 1094.21923828125 1101.3519287109375 1107.865966796875 1111.7821044921875 1115.1197509765625 1123.908935546875 1129.67138671875 1139.3922119140625 1146.2945556640625 1149.386474609375 1151.085205078125 1152.4678955078125 1153.847900390625 1155.0311279296875 1155.7015380859375 1156.3150634765625 1156.9644775390625 1157.58251953125 1158.0325927734375 1158.6199951171875 1159.128662109375 1159.47705078125 1159.7440185546875 1159.9368896484375 1160.0482177734375 1160.2222900390625 1160.33642578125 1160.3514404296875 1160.2884521484375 1160.140625 1159.86328125 1159.4373779296875 1158.84912109375 1158.18603515625
1043.90380859375 1049.6929931640625 1050.81591796875 1047.00830078125 1046.68310546875 1039.3157958984375 1035.048095703125 1033.982421875 1040.2174072265625 1049.7998046875 1059.6954345703125 1066.7413330078125 1070.815673828125 1069.55712890625 1066.0789794921875 1060.341552734375 1049.7763671875 1039.2117919921875 1028.681884765625 1016.7974853515625 1014.04034423828125 1016.7210693359375 1029.974609375 1038.2646484375 1045.5782470703125 1049.732177734375 1053.9085693359375 1053.9981689453125 1051.270263671875 1046.5623779296875 1043.4112548828125 1041.7431640625 1046.1448974609375 1052.56689453125 1058.6439208984375 1064.7572021484375 1071.435546875 1078.1478271484375 1087.4912109375 1105.478759765625 1124.701171875 1142.4149169921875 1146.1768798828125 1145.7908935546875 1144.8419189453125 1143.0633544921875 1140.7642822265625 1135.0595703125 1120.0626220703125 1105.3138427734375 1090.23779296875 1075.588623046875 1062.5050048828125 1051.6865234375 1038.302001953125 1025.6290283203125 1017.72003173828125 1019.34564208984375 1034.9410400390625 1044.156982421875 1054.40283203125 1059.9744873046875 1064.3726806640625 1068.445556640625 1073.799560546875 1077.1722412109375 1080.2833251953125 1086.218017578125 1093.3555908203125 1098.6800537109375 1103.2127685546875 1108.06298828125 1116.417236328125 1127.791748046875 1138.691650390625 1144.8179931640625 1148.6837158203125 1151.1180419921875 1152.7369384765625 1153.9771728515625 1154.845458984375 1155.58642578125 1156.2322998046875 1156.85546875 1157.4189453125 1157.951904296875 1158.5045166015625 1159.0394287109375 1159.4532470703125 1159.8089599609375 1160.0863037109375 1160.2938232421875 1160.402587890625 1160.4583740234375 1160.464111328125 1160.450439453125 1160.3790283203125 1160.1922607421875 1159.8702392578125 1159.400634765625 1158.7154541015625
1034.731689453125 1042.3240966796875 1043.2529296875 1040.5224609375 1035.2244873046875 1031.63330078125 1029.849365234375 1032.4022216796875 1043.0128173828125 1053.3050537109375 1061.7142333984375 1068.7484130859375 1070.5400390625 1069.6876220703125 1067.458740234375 1062.8106689453125 1054.5601806640625 1045.5489501953125 1032.279052734375 1018.5614013671875 1014.19842529296875 1016.5577392578125 1029.4249267578125 1038.3216552734375 1043.9290771484375 1048.0074462890625 1049.4052734375 1043.543701171875 1040.34814453125 1036.5426025390625 1034.5357666015625 1034.802734375 1037.735107421875 1044.9530029296875 1053.0126953125 1059.7156982421875 1066.8154296875 1073.5157470703125 1084.0252685546875 1104.3092041015625 1123.4598388671875 1140.8270263671875 1145.364013671875 1145.1728515625 1144.199462890625 1142.2742919921875 1139.1170654296875 1132.22021484375 1122.95703125 1110.3580322265625 1095.1693115234375 1079.7039794921875 1065.6307373046875 1051.70654296875 1037.0687255859375 1025.1376953125 1017.96832275390625 1019.59716796875 1035.57373046875 1047.8489990234375 1057.24462890625 1063.6634521484375 1068.1981201171875 1072.0679931640625 1075.6453857421875 1076.969482421875 1078.966064453125 1082.85693359375 1088.013916015625 1094.5750732421875 1098.3507080078125 1103.010498046875 1112.928466796875 1126.181884765625 1134.4884033203125 1142.250732421875 1147.187744140625 1150.3931884765625 1152.7696533203125 1153.9295654296875 1154.6744384765625 1155.4300537109375 1156.1177978515625 1156.70458984375 1157.265625 1157.834716796875 1158.4215087890625 1158.959228515625 1159.3995361328125 1159.809814453125 1160.150390625 1160.3857421875 1160.4827880859375 1160.58544921875 1160.585205078125 1160.577880859375 1160.5225830078125 1160.3658447265625 1160.0810546875 1159.6932373046875 1159.0738525390625
1027.234130859375 1033.886962890625 1034.2625732421875 1030.76025390625 1026.4439697265625 1027.01513671875 1028.0118408203125 1033.81201171875 1045.4320068359375 1056.6005859375 1064.849853515625 1068.7691650390625 1068.700927734375 1067.6754150390625 1063.7147216796875 1059.5699462890625 1053.4384765625 1044.85888671875 1031.9654541015625 1018.3634033203125 1014.118896484375 1016.8995361328125 1028.1214599609375 1038.1446533203125 1041.1854248046875 1042.380615234375 1039.4063720703125 1035.0859375 1031.5400390625 1028.0338134765625 1028.5428466796875 1030.2938232421875 1034.127685546875 1040.53857421875 1048.9666748046875 1058.3551025390625 1066.8751220703125 1074.8978271484375 1082.9652099609375 1103.0189208984375 1122.1160888671875 1136.7386474609375 1144.6580810546875 1144.2845458984375 1143.2525634765625 1140.946044921875 1136.3695068359375 1127.81005859375 1120.0255126953125 1111.111328125 1096.46533203125 1082.150634765625 1068.6951904296875 1053.5789794921875 1039.55029296875 1027.2073974609375 1017.9652099609375 1019.0308837890625 1034.1339111328125 1046.19873046875 1057.0360107421875 1064.531982421875 1070.6795654296875 1074.277587890625 1077.0693359375 1078.4141845703125 1081.2012939453125 1083.3524169921875 1086.562255859375 1090.5428466796875 1095.7554931640625 1100.9527587890625 1109.493408203125 1121.403076171875 1126.64404296875 1135.6541748046875 1142.8321533203125 1148.5096435546875 1151.908203125 1153.7484130859375 1154.518798828125 1155.224365234375 1155.951904296875 1156.597900390625 1157.1553955078125 1157.6610107421875 1158.1634521484375 1158.733642578125 1159.3094482421875 1159.686767578125 1160.10791015625 1160.3818359375 1160.570556640625 1160.6466064453125 1160.6651611328125 1160.64892578125 1160.60302734375 1160.4561767578125 1160.193603515625 1159.740234375 1159.2470703125
1020.1712646484375 1024.3173828125 1024.7286376953125 1021.48028564453125 1022.930908203125 1027.2064208984375 1029.4935302734375 1038.5601806640625 1049.3861083984375 1059.3262939453125 1068.2364501953125 1069.1588134765625 1063.5068359375 1058.925048828125 1057.2032470703125 1053.1624755859375 1048.7774658203125 1039.6708984375 1028.5411376953125 1017.79168701171875 1013.88671875 1018.657958984375 1027.16552734375 1033.5697021484375 1036.5350341796875 1032.9251708984375 1026.419189453125 1022.426025390625 1021.38787841796875 1022.1551513671875 1024.6968994140625 1029.267333984375 1034.4805908203125 1041.7606201171875 1051.436279296875 1062.470458984375 1070.6195068359375 1079.3931884765625 1087.5396728515625 1102.5386962890625 1117.05712890625 1132.6060791015625 1142.52880859375 1143.1998291015625 1141.6739501953125 1136.8087158203125 1127.9031982421875 1119.0074462890625 1111.8109130859375 1105.142578125 1098.0352783203125 1087.71875 1076.2774658203125 1062.2550048828125 1047.1082763671875 1032.2716064453125 1018.61993408203125 1017.71466064453125 1029.2076416015625 1039.7017822265625 1050.0780029296875 1059.781005859375 1067.900390625 1073.631591796875 1078.2835693359375 1080.025634765625 1082.4564208984375 1082.9000244140625 1085.9339599609375 1089.662841796875 1094.091796875 1099.0439453125 1105.06884765625 1111.289306640625 1121.717041015625 1125.75146484375 1134.30029296875 1142.13232421875 1149.4727783203125 1152.7933349609375 1154.0194091796875 1154.5758056640625 1155.36962890625 1156.0345458984375 1156.64111328125 1157.25 1157.783447265625 1158.39111328125 1158.8885498046875 1159.3809814453125 1159.8701171875 1160.2159423828125 1160.5023193359375 1160.6617431640625 1160.7774658203125 1160.750244140625 1160.66796875 1160.526611328125 1160.2265625 1159.8680419921875 1159.3985595703125
1015.702392578125 1016.32489013671875 1017.56103515625 1019.4010009765625 1023.56842041015625 1028.268310546875 1035.5435791015625 1046.306396484375 1057.056884765625 1066.2100830078125 1071.156005859375 1069.0833740234375 1060.243896484375 1051.5211181640625 1045.9683837890625 1041.8807373046875 1039.2216796875 1031.6485595703125 1021.87310791015625 1013.259765625 1013.06365966796875 1017.30291748046875 1022.92596435546875 1027.158935546875 1026.04736328125 1021.194580078125 1018.8975830078125 1019.373779296875 1021.52801513671875 1024.136474609375 1026.810302734375 1031.669189453125 1039.98388671875 1048.77099609375 1056.918212890625 1067.2291259765625 1075.3553466796875 1082.6485595703125 1093.2664794921875 1103.7691650390625 1115.1195068359375 1133.1517333984375 1139.2799072265625 1140.6959228515625 1138.15673828125 1128.2860107421875 1118.6517333984375 1105.4725341796875 1098.457763671875 1096.5 1091.7672119140625 1084.7379150390625 1073.240234375 1060.7625732421875 1045.7667236328125 1029.734375 1015.576171875 1016.71490478515625 1027.555419921875 1039.08544921875 1049.407958984375 1058.899169921875 1064.775634765625 1068.943115234375 1074.9942626953125 1078.4666748046875 1080.5419921875 1081.005126953125 1083.0540771484375 1087.6234130859375 1092.34521484375 1096.964111328125 1100.98046875 1108.3560791015625 1109.681396484375 1116.3118896484375 1126.669189453125 1133.84765625 1142.16796875 1148.886474609375 1152.43701171875 1153.7789306640625 1154.4876708984375 1155.3236083984375 1156.0556640625 1156.6488037109375 1157.246826171875 1157.843017578125 1158.392822265625 1158.9202880859375 1159.541259765625 1159.969970703125 1160.285400390625 1160.5595703125 1160.7589111328125 1160.797607421875 1160.7750244140625 1160.603271484375 1160.3309326171875 1159.95849609375 1159.535888671875
1018.2650146484375 1018.048828125 1018.844482421875 1022.8829345703125 1027.869140625 1032.4720458984375 1041.7276611328125 1052.796142578125 1063.107177734375 1071.34326171875 1074.5576171875 1069.024658203125 1058.6783447265625 1050.502197265625 1042.1649169921875 1034.3880615234375 1028.0712890625 1023.94403076171875 1016.1912841796875 1010.98455810546875 1010.04425048828125 1012.11865234375 1018.13360595703125 1019.65911865234375 1018.1915283203125 1017.53912353515625 1019.270263671875 1022.587158203125 1030.838623046875 1037.9825439453125 1041.73828125 1044.5943603515625 1049.9903564453125 1058.62353515625 1067.1478271484375 1071.735595703125 1082.7301025390625 1087.29345703125 1098.615478515625 1111.3443603515625 1123.4906005859375 1128.0921630859375 1131.5552978515625 1131.8704833984375 1128.9801025390625 1119.4228515625 1106.14697265625 1094.2259521484375 1085.384765625 1081.931640625 1081.9122314453125 1076.24609375 1066.2615966796875 1049.77490234375 1036.5533447265625 1022.628173828125 1014.145263671875 1015.51806640625 1024.71728515625 1034.382568359375 1045.2276611328125 1054.80126953125 1059.87158203125 1065.0311279296875 1068.2965087890625 1070.048095703125 1070.97900390625 1074.216064453125 1078.6202392578125 1082.861083984375 1086.0347900390625 1090.9248046875 1092.172119140625 1096.601806640625 1099.8021240234375 1108.8504638671875 1115.4796142578125 1124.3409423828125 1133.1441650390625 1140.5390625 1146.50732421875 1150.1513671875 1152.9434814453125 1154.3028564453125 1155.1461181640625 1155.6505126953125 1156.3404541015625 1157.0699462890625 1157.73583984375 1158.4156494140625 1159.0340576171875 1159.6505126953125 1159.9813232421875 1160.293212890625 1160.5521240234375 1160.69189453125 1160.71826171875 1160.6192626953125 1160.3575439453125 1160.0166015625 1159.6241455078125
1027.5994873046875 1029.845947265625 1029.2315673828125 1029.1693115234375 1030.5484619140625 1037.9205322265625 1043.8841552734375 1055.5244140625 1065.053955078125 1072.6563720703125 1076.46337890625 1072.8126220703125 1064.441650390625 1052.486572265625 1041.5206298828125 1033.70849609375 1025.31982421875 1021.02685546875 1016.26007080078125 1009.73101806640625 1008.06951904296875 1007.60064697265625 1008.9256591796875 1010.263671875 1013.33746337890625 1018.1063232421875 1024.057373046875 1030.45166015625 1038.7369384765625 1046.59130859375 1054.06298828125 1060.6917724609375 1063.7120361328125 1067.2957763671875 1072.4979248046875 1082.695068359375 1084.442626953125 1092.2142333984375 1098.65625 1113.3184814453125 1118.403564453125 1123.9864501953125 1121.216552734375 1120.910400390625 1119.621826171875 1110.90869140625 1101.46044921875 1085.71484375 1075.9024658203125 1067.476806640625 1068.0169677734375 1065.2801513671875 1054.92333984375 1038.9954833984375 1026.9927978515625 1017.932861328125 1013.2933349609375 1014.5074462890625 1024.0391845703125 1027.9544677734375 1039.68115234375 1046.43798828125 1053.245849609375 1056.295166015625 1058.5616455078125 1061.9837646484375 1065.7501220703125 1070.323486328125 1072.7364501953125 1077.13037109375 1082.329345703125 1082.94384765625 1083.7574462890625 1083.91552734375 1092.2840576171875 1097.6627197265625 1106.643310546875 1115.69775390625 1123.658935546875 1127.9364013671875 1134.805908203125 1140.672119140625 1146.687744140625 1152.2630615234375 1153.6424560546875 1154.707763671875 1155.218017578125 1155.976318359375 1156.7852783203125 1157.76416015625 1158.413330078125 1159.0069580078125 1159.452392578125 1159.9412841796875 1160.0977783203125 1160.34130859375 1160.4146728515625 1160.4141845703125 1160.178955078125 1159.9471435546875 1159.6026611328125
1032.3707275390625 1041.0137939453125 1040.549072265625 1040.665283203125 1040.8941650390625 1044.389892578125 1049.6380615234375 1058.50244140625 1062.2852783203125 1069.135009765625 1074.4249267578125 1073.37255859375 1063.28857421875 1051.619384765625 1042.3162841796875 1040.9351806640625 1029.9498291015625 1024.7996826171875 1020.3671875 1011.6265869140625 1007.03875732421875 1006.47467041015625 1007.51055908203125 1008.927734375 1014.4990234375 1020.3990478515625 1027.8740234375 1034.8056640625 1043.39697265625 1054.896484375 1062.534423828125 1070.48974609375 1077.243896484375 1081.6448974609375 1084.203369140625 1085.139892578125 1086.2615966796875 1092.07080078125 1097.4483642578125 1111.6405029296875 1113.5203857421875 1113.53955078125 1105.767333984375 1105.0843505859375 1104.693603515625 1101.9842529296875 1096.581787109375 1084.0274658203125 1069.117919921875 1059.704833984375 1054.1214599609375 1053.0621337890625 1041.266845703125 1036.0963134765625 1023.95916748046875 1013.88677978515625 1013.59320068359375 1016.92156982421875 1023.57244873046875 1028.87548828125 1031.2158203125 1036.4342041015625 1042.4228515625 1049.5028076171875 1053.5908203125 1057.8209228515625 1060.9034423828125 1062.5950927734375 1067.83251953125 1070.8614501953125 1071.5679931640625 1071.5770263671875 1072.118896484375 1075.3399658203125 1080.848388671875 1088.3079833984375 1097.8953857421875 1103.749755859375 1110.30859375 1114.51318359375 1121.9281005859375 1127.9688720703125 1137.091552734375 1144.5736083984375 1150.84423828125 1152.7293701171875 1153.712158203125 1154.8724365234375 1155.7969970703125 1156.8173828125 1157.6285400390625 1158.261474609375 1158.603271484375 1158.9609375 1159.2276611328125 1159.4742431640625 1159.8800048828125 1159.9696044921875 1159.9716796875 1159.7021484375 1159.5189208984375
1041.939697265625 1046.0703125 1050.5406494140625 1051.7325439453125 1051.7657470703125 1052.4979248046875 1060.4288330078125 1063.4156494140625 1066.6817626953125 1068.8153076171875 1069.342041015625 1068.9781494140625 1062.1990966796875 1054.0035400390625 1047.7403564453125 1042.1075439453125 1039.9830322265625 1031.7935791015625 1024.994384765625 1018.12432861328125 1006.9608154296875 1005.094482421875 1006.83685302734375 1012.69219970703125 1017.5897216796875 1026.1197509765625 1030.0194091796875 1036.1148681640625 1043.045654296875 1056.8494873046875 1067.89794921875 1077.6771240234375 1082.80810546875 1085.5517578125 1086.1416015625 1086.0506591796875 1086.199951171875 1089.0457763671875 1095.6763916015625 1110.41162109375 1107.726318359375 1106.2313232421875 1097.3209228515625 1090.894775390625 1090.459716796875 1093.4874267578125 1090.815673828125 1082.0435791015625 1073.9005126953125 1056.67333984375 1048.3814697265625 1042.5771484375 1035.7802734375 1025.3900146484375 1016.48699951171875 1013.333740234375 1013.81927490234375 1018.16156005859375 1020.65924072265625 1024.21337890625 1028.756591796875 1032.6102294921875 1035.400634765625 1042.7572021484375 1048.9969482421875 1051.2490234375 1055.9781494140625 1059.1319580078125 1058.61865234375 1058.7728271484375 1061.383544921875 1060.9212646484375 1060.798583984375 1066.330810546875 1070.739013671875 1081.16064453125 1084.1224365234375 1088.5797119140625 1095.125244140625 1101.4674072265625 1110.6446533203125 1120.1649169921875 1126.5360107421875 1134.6458740234375 1142.654052734375 1148.930908203125 1152.4683837890625 1153.7156982421875 1154.7747802734375 1155.7349853515625 1156.7021484375 1157.1885986328125 1157.4814453125 1157.801025390625 1157.942138671875 1158.1878662109375 1158.8321533203125 1159.415283203125 1159.5157470703125 1159.5274658203125 1159.257568359375
1043.7401123046875 1053.091796875 1059.5185546875 1060.513427734375 1061.9630126953125 1064.254638671875 1070.43603515625 1070.747802734375 1069.85595703125 1069.523681640625 1066.216552734375 1062.504638671875 1055.60791015625 1055.84912109375 1055.686279296875 1050.2255859375 1043.498046875 1037.731201171875 1029.1297607421875 1016.71160888671875 1005.53704833984375 1004.6341552734375 1010.4383544921875 1016.02288818359375 1021.357666015625 1025.7227783203125 1030.4449462890625 1035.6954345703125 1043.24169921875 1056.8494873046875 1067.7952880859375 1076.5478515625 1082.580078125 1082.5037841796875 1079.1688232421875 1077.5440673828125 1080.60693359375 1085.4251708984375 1093.5638427734375 1107.3822021484375 1106.9320068359375 1101.635498046875 1089.9486083984375 1081.237548828125 1076.0328369140625 1080.0257568359375 1081.960693359375 1078.7890625 1071.198486328125 1064.1622314453125 1048.0347900390625 1039.418701171875 1030.9678955078125 1020.247802734375 1014.2275390625 1013.56500244140625 1016.0164794921875 1018.741943359375 1018.77423095703125 1019.18731689453125 1023.1973876953125 1028.462158203125 1032.4261474609375 1036.052978515625 1042.0704345703125 1045.4603271484375 1046.8299560546875 1045.1693115234375 1046.42529296875 1048.49951171875 1050.349853515625 1051.52978515625 1053.9696044921875 1058.89208984375 1066.237060546875 1075.48291015625 1082.0775146484375 1085.905517578125 1090.40185546875 1096.911376953125 1102.9273681640625 1112.6060791015625 1121.1910400390625 1132.092529296875 1138.86767578125 1145.102294921875 1150.6654052734375 1152.4647216796875 1153.6812744140625 1154.6533203125 1155.4703369140625 1155.572509765625 1155.580078125 1155.658447265625 1156.105712890625 1156.91943359375 1157.7255859375 1158.36279296875 1158.868896484375 1159.06396484375 1158.9639892578125
1046.9693603515625 1058.7557373046875 1066.385986328125 1071.6082763671875 1074.971435546875 1076.618408203125 1076.870361328125 1075.555419921875 1069.1488037109375 1063.3310546875 1057.7393798828125 1055.0167236328125 1055.189208984375 1055.5316162109375 1055.49755859375 1050.3211669921875 1042.8189697265625 1035.0362548828125 1021.92181396484375 1012.56365966796875 1005.73046875 1006.34210205078125 1014.78857421875 1021.1903076171875 1025.1351318359375 1027.391357421875 1031.1884765625 1035.8671875 1042.66015625 1050.73193359375 1062.2030029296875 1072.3421630859375 1079.79443359375 1077.4178466796875 1072 1073.6837158203125 1075.2120361328125 1081.7979736328125 1092.3402099609375 1100.873046875 1103.7052001953125 1094.9599609375 1082.3685302734375 1073.1942138671875 1065.00634765625 1062.1943359375 1065.4305419921875 1066.0836181640625 1064.333984375 1060.50390625 1051.4949951171875 1039.916015625 1027.1634521484375 1018.39215087890625 1015.16876220703125 1014.861328125 1018.0096435546875 1026.60888671875 1025.3702392578125 1023.2166748046875 1020.568603515625 1022.39044189453125 1023.99737548828125 1028.4920654296875 1034.7772216796875 1032.69189453125 1033.896240234375 1035.5009765625 1040.72900390625 1042.5938720703125 1045.6204833984375 1048.822509765625 1052.0135498046875 1056.4283447265625 1063.6422119140625 1071.603759765625 1081.667236328125 1087.0760498046875 1092.7353515625 1100.96435546875 1108.908935546875 1119.2000732421875 1122.58447265625 1133.320068359375 1140.1817626953125 1147.430419921875 1150.3076171875 1151.887451171875 1152.4102783203125 1153.6717529296875 1153.528564453125 1153.2962646484375 1152.958251953125 1152.849365234375 1153.5648193359375 1154.577392578125 1156.2030029296875 1157.21630859375 1157.7493896484375 1158.2642822265625 1158.548583984375
1055.076416015625 1060.55078125 1073.056640625 1078.3050537109375 1080.6099853515625 1082.6136474609375 1079.489990234375 1074.876220703125 1067.0521240234375 1060.0489501953125 1053.568115234375 1046.373779296875 1043.004638671875 1043.0777587890625 1046.623779296875 1043.0321044921875 1038.3651123046875 1024.639404296875 1022.841552734375 1009.0751953125 1008.36004638671875 1006.54595947265625 1016.7567138671875 1025.0391845703125 1031.096435546875 1035.4442138671875 1035.2125244140625 1038.3475341796875 1045.53662109375 1051.5804443359375 1061.113037109375 1074.1441650390625 1075.307861328125 1073.7142333984375 1066.7982177734375 1066.7122802734375 1073.209716796875 1076.6551513671875 1090.1949462890625 1095.2515869140625 1097.132568359375 1090.426025390625 1078.5687255859375 1067.597412109375 1060.2244873046875 1053.0677490234375 1050.2564697265625 1052.014892578125 1054.6771240234375 1052.00341796875 1042.434814453125 1036.5538330078125 1022.794921875 1011.49658203125 1010.27667236328125 1015.950439453125 1027.26513671875 1034.7447509765625 1037.388671875 1031.9339599609375 1026.388916015625 1021.9219970703125 1021.4808349609375 1022.47528076171875 1025.1080322265625 1027.15576171875 1030.7327880859375 1034.6156005859375 1038.9642333984375 1042.214111328125 1044.5 1049.8486328125 1054.904296875 1061.826416015625 1069.64013671875 1078.741455078125 1089.4085693359375 1097.5806884765625 1107.730224609375 1112.6591796875 1116.78857421875 1121.81591796875 1128.011474609375 1135.9068603515625 1143.417724609375 1148.6490478515625 1150.599365234375 1151.4661865234375 1151.763671875 1151.762939453125 1149.9156494140625 1147.82763671875 1145.2996826171875 1143.3251953125 1144.236328125 1152.401611328125 1154.2039794921875 1155.495849609375 1156.576904296875 1157.2625732421875 1157.7471923828125
1062.1612548828125 1071.7694091796875 1074.265869140625 1078.8040771484375 1080.802001953125 1080.08251953125 1077.1180419921875 1072.6163330078125 1068.128662109375 1059.7171630859375 1051.891357421875 1044.285888671875 1037.7357177734375 1033.6065673828125 1028.7843017578125 1030.5072021484375 1026.3795166015625 1023.232177734375 1012.02197265625 1007.5313720703125 1007.46197509765625 1007.92816162109375 1017.73931884765625 1025.483154296875 1033.775634765625 1040.6505126953125 1044.467041015625 1047.18359375 1051.7633056640625 1058.0877685546875 1071.0887451171875 1071.12744140625 1072.64111328125 1068.6107177734375 1062.591064453125 1058.2994384765625 1063.5181884765625 1073.5933837890625 1077.863525390625 1084.9149169921875 1086.6485595703125 1076.9083251953125 1075.5223388671875 1065.2982177734375 1056.11181640625 1049.0885009765625 1045.66455078125 1041.093994140625 1039.332763671875 1040.0933837890625 1037.408203125 1024.3302001953125 1019.7991943359375 1005.99053955078125 1007.33056640625 1017.15826416015625 1030.0048828125 1040.6864013671875 1044.28076171875 1045.5003662109375 1042.55615234375 1034.79296875 1027.247314453125 1023.60662841796875 1024.084228515625 1026.4500732421875 1030.5670166015625 1038.903076171875 1045.5203857421875 1052.5260009765625 1059.1380615234375 1061.51025390625 1067.0107421875 1071.2161865234375 1078.9451904296875 1087.3076171875 1096.90576171875 1106.05078125 1115.5733642578125 1124.4625244140625 1129.10009765625 1129.4462890625 1134.2578125 1138.597412109375 1146.5216064453125 1149.7509765625 1150.6143798828125 1150.9010009765625 1151.1810302734375 1150.1429443359375 1146.03662109375 1136.101318359375 1130.462158203125 1129.74658203125 1134.8099365234375 1145.3631591796875 1152.1614990234375 1153.8856201171875 1155.0606689453125 1156.0137939453125 1156.581298828125
1069.450439453125 1073.037841796875 1074.0811767578125 1074.7047119140625 1075.1898193359375 1073.369384765625 1071.25244140625 1069.464599609375 1065.969482421875 1059.5562744140625 1053.1883544921875 1045.7359619140625 1036.1141357421875 1028.6302490234375 1021.7513427734375 1018.8984375 1014.995849609375 1012.42608642578125 1009.5989990234375 1006.9349365234375 1004.614990234375 1008.061279296875 1016.8465576171875 1024.603515625 1032.732666015625 1041.8623046875 1050.7318115234375 1056.87841796875 1062.9058837890625 1069.11279296875 1071.203125 1070.3192138671875 1069.636474609375 1061.83984375 1055.4683837890625 1052.084228515625 1058.6357421875 1061.286376953125 1067.7470703125 1071.257568359375 1073.5694580078125 1073.152099609375 1071.683837890625 1065.378173828125 1062.076171875 1052.6038818359375 1044.7734375 1039.0482177734375 1032.5321044921875 1029.3338623046875 1024.9749755859375 1019.824951171875 1011.60198974609375 1004.650146484375 1007.62567138671875 1017.17657470703125 1027.15673828125 1037.3621826171875 1044.873291015625 1048.50439453125 1050.9505615234375 1048.6658935546875 1040.3326416015625 1032.4613037109375 1027.02587890625 1028.61376953125 1035.55322265625 1044.234130859375 1053.810791015625 1062.7254638671875 1069.77685546875 1074.1025390625 1079.0443115234375 1082.34130859375 1088.0880126953125 1095.6082763671875 1104.7811279296875 1115.1290283203125 1125.9957275390625 1135.239990234375 1138.6534423828125 1139.9302978515625 1141.1568603515625 1146.533203125 1148.217529296875 1149.8077392578125 1150.2421875 1150.3558349609375 1149.874267578125 1146.1529541015625 1136.6551513671875 1124.435302734375 1116.1546630859375 1118.5570068359375 1125.5498046875 1135.0919189453125 1145.1490478515625 1151.3018798828125 1153.369384765625 1154.5599365234375 1155.3494873046875
1069.677978515625 1071.9044189453125 1069.5181884765625 1065.9415283203125 1065.8975830078125 1063.951171875 1057.3260498046875 1055.9573974609375 1059.3984375 1059.120361328125 1055.9073486328125 1044.9615478515625 1035.297607421875 1028.0721435546875 1021.46746826171875 1017.43341064453125 1014.44256591796875 1010.62103271484375 1007.39556884765625 1004.9091796875 1004.36572265625 1009.33441162109375 1016.80322265625 1023.6925048828125 1031.3658447265625 1042.532958984375 1055.037841796875 1064.2894287109375 1071.9825439453125 1075.5052490234375 1074.01611328125 1070.2711181640625 1068.349609375 1060.5445556640625 1049.86474609375 1044.9844970703125 1045.50732421875 1047.012451171875 1050.1092529296875 1053.4755859375 1057.1693115234375 1061.680908203125 1064.8914794921875 1064.583984375 1063.53857421875 1060.43212890625 1054.354248046875 1045.0640869140625 1035.11474609375 1028.5841064453125 1022.39324951171875 1017.707275390625 1006.640625 1003.82275390625 1009.93359375 1017.33868408203125 1027.0252685546875 1036.0091552734375 1042.4742431640625 1048.769775390625 1053.00927734375 1054.2286376953125 1052.1290283203125 1041.8916015625 1034.203857421875 1032.4091796875 1035.8896484375 1045.421630859375 1059.28125 1069.299072265625 1079.569091796875 1085.8125 1089.076416015625 1095.2958984375 1097.2620849609375 1104.5999755859375 1113.4437255859375 1123.0631103515625 1132.4588623046875 1143.2913818359375 1145.8551025390625 1147.085693359375 1147.18896484375 1148.0509033203125 1149.4613037109375 1149.6923828125 1149.8856201171875 1149.531982421875 1146.25341796875 1136.9290771484375 1123.8321533203125 1113.63427734375 1107.06884765625 1108.31640625 1115.5731201171875 1124.668701171875 1134.927734375 1143.291015625 1149.1669921875 1152.2960205078125 1153.994384765625
1063.128662109375 1062.568359375 1062.486328125 1060.281005859375 1055.6693115234375 1053.8193359375 1049.1978759765625 1046.3050537109375 1050.4310302734375 1058.329345703125 1056.5980224609375 1048.5338134765625 1039.1624755859375 1033.027587890625 1028.43505859375 1026.376708984375 1023.08905029296875 1012.9368896484375 1009.1602783203125 1003.1153564453125 1005.9364013671875 1010.505859375 1016.4139404296875 1024.8543701171875 1031.66064453125 1039.8280029296875 1051.676025390625 1065.5660400390625 1075.0098876953125 1080.202392578125 1079.2723388671875 1074.9969482421875 1066.8817138671875 1060.4384765625 1046.86669921875 1040.31787109375 1037.84033203125 1037.0582275390625 1038.012451171875 1039.042236328125 1042.814208984375 1047.8900146484375 1052.700439453125 1056.768798828125 1058.432861328125 1059.9931640625 1059.465087890625 1055.3551025390625 1047.2874755859375 1038.1148681640625 1025.387451171875 1017.0921630859375 1004.61572265625 1003.88702392578125 1010.52825927734375 1017.54473876953125 1027.152099609375 1035.9908447265625 1040.845947265625 1048.0894775390625 1053.57373046875 1056.37548828125 1058.8599853515625 1053.4622802734375 1043.462158203125 1038.232666015625 1039.4044189453125 1046.2291259765625 1059.552001953125 1072.8250732421875 1082.3782958984375 1089.1646728515625 1098.744873046875 1103.9327392578125 1111.002197265625 1115.6490478515625 1121.7967529296875 1131.1141357421875 1143.51708984375 1147.8475341796875 1148.895263671875 1149.3629150390625 1149.3076171875 1149.33251953125 1149.58740234375 1149.490966796875 1148.8529052734375 1145.36279296875 1138.051025390625 1128 1117.5035400390625 1106.20263671875 1100.1160888671875 1100.1641845703125 1106.837890625 1114.9139404296875 1123.2366943359375 1131.2515869140625 1138.92041015625 1145.388671875 1150.3204345703125
1053.703369140625 1050.5859375 1050.8564453125 1052.2659912109375 1048.58251953125 1043.787109375 1038.3084716796875 1036.5174560546875 1041.779541015625 1051.45947265625 1057.0274658203125 1054.810791015625 1046.4847412109375 1042.076171875 1039.0604248046875 1033.6883544921875 1027.121826171875 1019.5091552734375 1011.85003662109375 1003.72607421875 1003.843994140625 1009.7757568359375 1015.10101318359375 1022.1104736328125 1029.732177734375 1038.3565673828125 1048.63330078125 1061.652587890625 1074.7080078125 1080.8663330078125 1081.78271484375 1078.2845458984375 1070.1688232421875 1060.2376708984375 1046.825927734375 1039.248291015625 1035.6455078125 1034.137939453125 1034.2750244140625 1029.645751953125 1030.5439453125 1034.2413330078125 1038.6942138671875 1043.3074951171875 1047.8043212890625 1051.222900390625 1055.5682373046875 1055.6820068359375 1053.840576171875 1042.6806640625 1031.4998779296875 1016.01202392578125 1003.71783447265625 1003.6441650390625 1007.98248291015625 1018.5224609375 1027.359619140625 1036.669677734375 1041.6422119140625 1048.2593994140625 1054.029296875 1060.4691162109375 1064.716064453125 1061.6689453125 1053.8104248046875 1045.2069091796875 1043.4149169921875 1048.136474609375 1058.69873046875 1073.11328125 1084.8721923828125 1090.0782470703125 1104.410888671875 1111.427734375 1120.9144287109375 1128.5325927734375 1135.3338623046875 1143.02001953125 1148.254638671875 1149.437744140625 1149.8209228515625 1149.8428955078125 1149.689697265625 1149.559814453125 1149.2369384765625 1148.0673828125 1144.1680908203125 1136.603759765625 1127.1873779296875 1117.1005859375 1110.9263916015625 1099.9573974609375 1091.78125 1091.9036865234375 1097.94970703125 1105.7481689453125 1110.72509765625 1117.2532958984375 1124.983642578125 1134.0966796875 1146.193115234375
1044.7894287109375 1040.9837646484375 1039.377685546875 1041.3228759765625 1042.4974365234375 1035.112548828125 1032.635009765625 1031.801025390625 1034.2449951171875 1043.87109375 1053.869140625 1056.302734375 1050.9703369140625 1047.1812744140625 1042.47509765625 1035.8033447265625 1028.230224609375 1021.6781005859375 1013.6065673828125 1004.8143310546875 1003.1044921875 1007.984375 1012.8524169921875 1017.9874267578125 1026.1053466796875 1034.3271484375 1044.8160400390625 1058.9202880859375 1068.095703125 1073.896240234375 1078.4703369140625 1077.0186767578125 1069.46533203125 1059.3076171875 1049.108154296875 1042.9578857421875 1037.9603271484375 1034.6361083984375 1033.0394287109375 1026.3701171875 1023.344482421875 1023.74267578125 1025.954345703125 1030.45361328125 1034.8216552734375 1039.8284912109375 1045.768310546875 1049.7076416015625 1049.71728515625 1041.3101806640625 1027.869873046875 1010.62945556640625 1003.71917724609375 1002.01068115234375 1005.07757568359375 1015.007080078125 1024.3182373046875 1034.12451171875 1041.713134765625 1048.962158203125 1055.2320556640625 1062.945068359375 1069.9300537109375 1069.54345703125 1063.6654052734375 1054.184814453125 1049.0042724609375 1051.736572265625 1059.2664794921875 1072.386962890625 1085.4727783203125 1089.8677978515625 1105.842041015625 1116.2755126953125 1126.5440673828125 1135.73583984375 1143.2344970703125 1147.9205322265625 1149.2799072265625 1149.8834228515625 1150.02880859375 1149.8934326171875 1149.6483154296875 1149.1851806640625 1147.3365478515625 1141.559814453125 1131.825439453125 1122.343017578125 1116.9700927734375 1110.8890380859375 1103.359619140625 1093.5196533203125 1084.2503662109375 1082.863525390625 1089.347412109375 1095.969482421875 1098.6817626953125 1105.2701416015625 1113.143798828125 1122.8594970703125 1134.8157958984375
1038.787841796875 1033.7640380859375 1031.0263671875 1030.4884033203125 1032.9205322265625 1029.5692138671875 1027.2989501953125 1024.9942626953125 1028.62353515625 1037.01904296875 1046.68310546875 1054.7197265625 1052.7847900390625 1044.35791015625 1040.0614013671875 1029.2630615234375 1024.090087890625 1018.1588134765625 1009.74859619140625 1004.657470703125 1000.62725830078125 1003.0411376953125 1009.19964599609375 1014.60919189453125 1021.81756591796875 1031.565673828125 1043.8636474609375 1053.121826171875 1060.8758544921875 1067.196533203125 1072.2535400390625 1071.5911865234375 1069.082763671875 1063.10693359375 1054.804443359375 1050.1966552734375 1046.8701171875 1045.3499755859375 1042.46044921875 1030.7098388671875 1023.9561767578125 1019.3349609375 1019.12493896484375 1020.40289306640625 1023.6578369140625 1030.122802734375 1037.0404052734375 1042.4862060546875 1042.0159912109375 1033.8427734375 1021.2191162109375 1005.51318359375 1002.5247802734375 1001.204345703125 1004.357177734375 1010.6483154296875 1019.0909423828125 1027.452392578125 1036.6851806640625 1045.2208251953125 1053.9298095703125 1062.6484375 1069.8492431640625 1073.8895263671875 1073.1099853515625 1063.956787109375 1057.72314453125 1056.58984375 1061.4913330078125 1072.0374755859375 1084.23779296875 1089.488037109375 1105.385009765625 1117.208251953125 1127.0496826171875 1139.05078125 1145.8441162109375 1148.6873779296875 1149.392822265625 1149.852783203125 1150.008056640625 1149.869140625 1149.2655029296875 1146.960693359375 1140.2406005859375 1128.0302734375 1116.8985595703125 1108.121337890625 1105.6395263671875 1102.3480224609375 1094.2364501953125 1086.542236328125 1077.84912109375 1074.972900390625 1080.9530029296875 1083.5489501953125 1086.14013671875 1094.6029052734375 1103.4798583984375 1113.14404296875 1124.1976318359375
1037.4737548828125 1032.42138671875 1027.767578125 1024.4730224609375 1023.276123046875 1020.2652587890625 1019.314453125 1017.35595703125 1022.297607421875 1032.1942138671875 1042.7415771484375 1053.022705078125 1052.11669921875 1040.72021484375 1032.997314453125 1023.934326171875 1018.094482421875 1013.08251953125 1008.35308837890625 1003.966796875 998.0311279296875 997.19140625 1005.3824462890625 1013.94842529296875 1019.55035400390625 1031.25341796875 1039.0413818359375 1046.1124267578125 1051.8319091796875 1055.5709228515625 1059.0135498046875 1069.1500244140625 1069.1907958984375 1068.120849609375 1065.5357666015625 1060.80224609375 1060.1121826171875 1058.7110595703125 1053.7144775390625 1042.72119140625 1032.5147705078125 1023.95654296875 1017.39971923828125 1014.15380859375 1015.3255615234375 1020.64453125 1028.08154296875 1033.91796875 1033.4112548828125 1026.9443359375 1012.959228515625 1002.7298583984375 1001.4749755859375 1001.92755126953125 1006.370361328125 1011.08343505859375 1016.89947509765625 1022.50897216796875 1031.6444091796875 1040.4366455078125 1048.8634033203125 1057.949951171875 1064.5701904296875 1072.78466796875 1078.2310791015625 1073.30859375 1068.0721435546875 1062.39013671875 1066.050537109375 1071.791015625 1082.21630859375 1088.2796630859375 1101.643798828125 1113.03076171875 1125.5196533203125 1137.260009765625 1144.97021484375 1148.5867919921875 1149.2418212890625 1149.6903076171875 1149.8221435546875 1149.5870361328125 1147.4810791015625 1138.8516845703125 1128.8468017578125 1115.80712890625 1104.9249267578125 1097.1116943359375 1093.7125244140625 1091.2099609375 1085.02294921875 1076.24951171875 1068.6474609375 1066.7911376953125 1068.0946044921875 1070.1383056640625 1076.65283203125 1085.5362548828125 1094.9510498046875 1105.4451904296875 1115.614013671875
1041.140869140625 1033.38330078125 1030.551025390625 1024.63720703125 1019.728759765625 1015.99517822265625 1013.93194580078125 1012.3197021484375 1017.63140869140625 1028.4188232421875 1039.45703125 1047.9056396484375 1048.911376953125 1040.860595703125 1030.24853515625 1022.71685791015625 1016.0941162109375 1011.63421630859375 1009.15594482421875 1005.11187744140625 998.26324462890625 994.3907470703125 998.381103515625 1009.4793701171875 1018.24267578125 1027.2025146484375 1031.330322265625 1035.8323974609375 1038.883544921875 1042.2628173828125 1051.679931640625 1058.7930908203125 1068.3946533203125 1069.9918212890625 1070.6522216796875 1070.0966796875 1069.9063720703125 1068.2041015625 1063.8653564453125 1057.0831298828125 1045.0888671875 1035.2943115234375 1024.43115234375 1015.0357666015625 1010.74444580078125 1012.87811279296875 1018.46197509765625 1024.2447509765625 1027.0068359375 1020.44970703125 1007.77398681640625 1002.9677734375 1003.1138916015625 1006.2757568359375 1015.791259765625 1019.9356689453125 1021.95556640625 1025.306884765625 1030.7728271484375 1038.853759765625 1045.1939697265625 1053.4620361328125 1061.6229248046875 1068.6884765625 1075.5169677734375 1079.0164794921875 1076.7998046875 1071.3116455078125 1071.07958984375 1073.818115234375 1081.253662109375 1087.6395263671875 1097.661865234375 1108.304443359375 1121.7724609375 1131.8245849609375 1141.3082275390625 1147.6868896484375 1148.9119873046875 1149.3961181640625 1149.60498046875 1149.269775390625 1146.544921875 1136.8079833984375 1123.478515625 1110.103515625 1097.255126953125 1088.890625 1082.3177490234375 1079.3984375 1076.150390625 1065.706298828125 1057.893798828125 1055.0709228515625 1055.6915283203125 1062.6494140625 1067.1453857421875 1077.0997314453125 1086.85498046875 1097.727783203125 1107.40234375
1047.8388671875 1039.10791015625 1033.0927734375 1028.3319091796875 1023.19720458984375 1018.04571533203125 1010.8280029296875 1008.5050048828125 1011.28759765625 1020.91259765625 1032.517822265625 1041.953857421875 1046.4520263671875 1044.14599609375 1035.60986328125 1026.0181884765625 1018.87481689453125 1014.796875 1011.3489990234375 1007.29302978515625 1000.07366943359375 994.18017578125 993.37957763671875 1001.6893310546875 1013.00811767578125 1018.97833251953125 1021.3238525390625 1023.42608642578125 1026.464599609375 1034.2021484375 1043.8221435546875 1052.3380126953125 1066.1412353515625 1068.327880859375 1068.9093017578125 1071.552734375 1072.589599609375 1070.9688720703125 1068.094482421875 1064.7694091796875 1057.0489501953125 1047.2498779296875 1034.85498046875 1016.5206298828125 1008.5694580078125 1008.471923828125 1010.65087890625 1016.77386474609375 1021.0792236328125 1012.63287353515625 1006.2630615234375 1003.55816650390625 1006.0401611328125 1014.345458984375 1022.57073974609375 1031.592529296875 1034.4493408203125 1037.0401611328125 1037.416015625 1041.528564453125 1047.7347412109375 1056.447998046875 1061.9459228515625 1067.95849609375 1074.093017578125 1079.9420166015625 1081.6956787109375 1079.6903076171875 1076.5067138671875 1078.707275390625 1083.0467529296875 1090.46923828125 1097.8385009765625 1106.7095947265625 1119.09912109375 1129.456787109375 1138.764892578125 1146.179443359375 1148.3863525390625 1149.05078125 1149.3497314453125 1149.0537109375 1146.8394775390625 1141.3858642578125 1127.8880615234375 1110.7796630859375 1094.5955810546875 1085.7841796875 1076.74462890625 1070.53662109375 1064.832763671875 1055.420654296875 1047.8958740234375 1044.760009765625 1045.6903076171875 1053.0538330078125 1060.8720703125 1067.2244873046875 1077.3052978515625 1088.217041015625 1098.1756591796875
1053.6019287109375 1044.5240478515625 1034.7838134765625 1030.72509765625 1026.46044921875 1017.8707275390625 1008.0628662109375 1005.302001953125 1004.92327880859375 1012.49365234375 1023.3070068359375 1034.5577392578125 1043.6981201171875 1044.9642333984375 1040.533447265625 1033.70458984375 1027.443603515625 1023.3671875 1017.39385986328125 1011.93048095703125 1006.3265380859375 998.2508544921875 991.23834228515625 996.772216796875 1004.39569091796875 1009.90997314453125 1009.9971923828125 1013.21185302734375 1018.77081298828125 1028.0728759765625 1038.6446533203125 1052.0867919921875 1063.2020263671875 1065.6534423828125 1064.012451171875 1065.98291015625 1066.8924560546875 1066.535400390625 1065.573486328125 1064.8863525390625 1062.17626953125 1056.0535888671875 1044.5894775390625 1025.1807861328125 1010.8040771484375 1004.23443603515625 1005.0159912109375 1010.9605712890625 1013.7745361328125 1008.50341796875 1003.36578369140625 1004.564208984375 1010.37115478515625 1020.50518798828125 1029.853515625 1038.72802734375 1044.43994140625 1048.411376953125 1049.9652099609375 1054.106201171875 1058.851318359375 1065.460693359375 1068.40673828125 1071.990478515625 1074.5498046875 1078.9439697265625 1082.928955078125 1082.698974609375 1082.5086669921875 1084.8291015625 1087.9705810546875 1095.4229736328125 1102.095947265625 1111.2999267578125 1122.2818603515625 1133.44189453125 1140.760009765625 1145.693115234375 1147.6632080078125 1148.5311279296875 1149.0098876953125 1148.736572265625 1147.444091796875 1145.4669189453125 1136.6041259765625 1119.2928466796875 1101.91455078125 1087.7960205078125 1076.0067138671875 1068.0390625 1060.7843017578125 1051.2296142578125 1043.4776611328125 1038.2581787109375 1038.6044921875 1044.245361328125 1051.9476318359375 1059.7269287109375 1066.049560546875 1076.436767578125 1086.9625244140625
1051.8682861328125 1042.4578857421875 1033.2108154296875 1027.8187255859375 1023.08837890625 1012.664306640625 1006.80377197265625 1002.45318603515625 1000.484619140625 1004.74407958984375 1014.0538330078125 1025.20068359375 1036.80712890625 1044.5897216796875 1044.722412109375 1043.3123779296875 1039.8753662109375 1034.3123779296875 1027.457275390625 1022.38427734375 1015.41571044921875 1004.58038330078125 993.1234130859375 989.9942626953125 994.3297119140625 999.09637451171875 1002.93359375 1009.4591064453125 1015.22857666015625 1025.513671875 1038.5408935546875 1053.50048828125 1061.4412841796875 1063.0751953125 1058.7982177734375 1057.4774169921875 1056.628173828125 1056.853515625 1057.341796875 1058.5670166015625 1058.6810302734375 1056.6258544921875 1049.727294921875 1037.6986083984375 1017.14007568359375 1005.68267822265625 1000.78692626953125 1002.4649658203125 1002.63397216796875 1001.9151611328125 1000.68206787109375 1004.866943359375 1012.9442138671875 1021.93609619140625 1033.3822021484375 1040.5655517578125 1047.8114013671875 1052.8753662109375 1057.5833740234375 1062.410400390625 1066.464599609375 1071.8663330078125 1075.3729248046875 1076.542236328125 1076.9783935546875 1080.7518310546875 1083.154541015625 1086.84423828125 1089.4556884765625 1095.472900390625 1099.56884765625 1103.560791015625 1111.1611328125 1120.764404296875 1130.5 1140.19189453125 1144.0289306640625 1145.669189453125 1146.806396484375 1147.915771484375 1148.5562744140625 1148.2955322265625 1147.6676025390625 1146.9149169921875 1143.2919921875 1130.925048828125 1113.74853515625 1096.9461669921875 1083.421142578125 1072.3966064453125 1064.0726318359375 1054.84912109375 1044.8367919921875 1037.844970703125 1035.442626953125 1038.240234375 1042.8077392578125 1050.1536865234375 1056.4239501953125 1065.1070556640625 1073.8876953125
1044.552978515625 1035.4066162109375 1027.0618896484375 1021.0736083984375 1015.9481201171875 1009.47564697265625 1006.69140625 1002.9163818359375 998.57666015625 997.82415771484375 1005.92449951171875 1016.4979248046875 1028.7177734375 1039.78515625 1046.7562255859375 1050.4873046875 1050.2216796875 1046.6328125 1041.19482421875 1033.9556884765625 1025.1431884765625 1013.066162109375 1000.36407470703125 986.61370849609375 986.36199951171875 991.26837158203125 1000.931396484375 1008.43585205078125 1014.16387939453125 1025.5933837890625 1038.5687255859375 1053.2933349609375 1060.1949462890625 1060.5723876953125 1055.824951171875 1053.177978515625 1051.4754638671875 1049.8343505859375 1048.37548828125 1048.0914306640625 1047.9637451171875 1050.72216796875 1047.652099609375 1041.651123046875 1027.2703857421875 1015.0836181640625 1004.12261962890625 997.60455322265625 996.964111328125 997.232666015625 1000.04638671875 1004.7137451171875 1012.881591796875 1020.6968994140625 1029.7386474609375 1037.294677734375 1046.4244384765625 1052.5577392578125 1058.242431640625 1063.6787109375 1069.352294921875 1074.2857666015625 1078.446044921875 1079.751220703125 1080.653076171875 1082.870849609375 1087.0137939453125 1093.2598876953125 1101.9891357421875 1109.0006103515625 1114.30029296875 1115.645263671875 1124.580810546875 1133.0089111328125 1139.337646484375 1144.1064453125 1145.173828125 1145.5006103515625 1145.914794921875 1147.18994140625 1148.0113525390625 1147.884765625 1147.42431640625 1146.963134765625 1145.6993408203125 1138.5511474609375 1123.5438232421875 1106.709716796875 1093.936767578125 1080.9071044921875 1070.2550048828125 1062.00634765625 1052.4180908203125 1043.0677490234375 1033.1673583984375 1032.1875 1034.365234375 1038.4306640625 1046.88134765625 1053.8065185546875 1060.6904296875
1039.8050537109375 1031.9073486328125 1023.5042724609375 1017.55010986328125 1012.75347900390625 1009.85662841796875 1007.7017822265625 1005.610107421875 1000.235107421875 993.5765380859375 998.1827392578125 1009.51873779296875 1021.758056640625 1034.0535888671875 1045.6832275390625 1052.7568359375 1055.860595703125 1054.427734375 1050.622802734375 1042.249755859375 1032.4132080078125 1019.902587890625 1008.4654541015625 991.14544677734375 984.16748046875 986.802734375 997.33404541015625 1005.64117431640625 1013.83575439453125 1024.1812744140625 1036.9906005859375 1049.70361328125 1057.11865234375 1058.0345458984375 1055.17041015625 1052.9254150390625 1050.994384765625 1047.7969970703125 1044.4708251953125 1038.126953125 1033.6993408203125 1039.1090087890625 1039.2933349609375 1036.96728515625 1031.0628662109375 1022.0472412109375 1012.07208251953125 1002.2713623046875 997.5499267578125 998.81121826171875 1001.98846435546875 1004.6234130859375 1010.2760009765625 1016.63995361328125 1024.088134765625 1032.8466796875 1042.56201171875 1050.0897216796875 1056.4871826171875 1061.69091796875 1069.0927734375 1073.640869140625 1078.11181640625 1080.964599609375 1082.2396240234375 1084.0550537109375 1094.0435791015625 1103.279541015625 1112.990966796875 1121.1302490234375 1127.3695068359375 1129.898193359375 1136.8343505859375 1141.97705078125 1143.9891357421875 1144.72998046875 1144.7249755859375 1144.8348388671875 1145.2734375 1146.232421875 1147.292724609375 1147.395751953125 1147.0172119140625 1146.5977783203125 1145.55078125 1140.3160400390625 1128.416748046875 1112.7259521484375 1098.8885498046875 1085.1171875 1074.18701171875 1068.422607421875 1061.3165283203125 1051.7159423828125 1037.3973388671875 1028.242431640625 1027.09521484375 1028.296142578125 1036.18115234375 1043.88671875 1048.953857421875
1038.1844482421875 1032.3515625 1026.7379150390625 1022.57757568359375 1017.4820556640625 1013.87481689453125 1011.4124755859375 1008.1939697265625 1004.0516357421875 992.4769287109375 991.7745361328125 1004.19879150390625 1017.06597900390625 1030.2412109375 1040.3468017578125 1050.11376953125 1055.4656982421875 1055.2991943359375 1050.9853515625 1043.572998046875 1032.873046875 1019.58673095703125 1011.40948486328125 998.05792236328125 987.5784912109375 982.76025390625 990.3770751953125 998.9881591796875 1010.01397705078125 1021.5526123046875 1033.373291015625 1044.0999755859375 1052.8035888671875 1054.629638671875 1053.842041015625 1051.8701171875 1050.5706787109375 1047.44873046875 1043.3370361328125 1030.4600830078125 1024.1912841796875 1023.43194580078125 1026.8536376953125 1028.059814453125 1024.809814453125 1020.23492431640625 1013.04034423828125 1004.97412109375 996.82049560546875 999.5631103515625 1003.54498291015625 1004.5283203125 1007.2945556640625 1012.8056640625 1018.02728271484375 1025.7415771484375 1034.360595703125 1043.8154296875 1052.1365966796875 1058.4410400390625 1065.9757080078125 1070.1553955078125 1073.8115234375 1077.476806640625 1082.60888671875 1085.1976318359375 1098.6455078125 1112.5633544921875 1121.383056640625 1131.5308837890625 1137.03076171875 1140.5557861328125 1143.1929931640625 1144.5689697265625 1144.3238525390625 1143.900146484375 1143.7884521484375 1143.7535400390625 1144.4896240234375 1145.3389892578125 1146.4393310546875 1146.66650390625 1146.3214111328125 1145.8463134765625 1144.1300048828125 1137.243896484375 1127.160888671875 1113.8001708984375 1099.465576171875 1084.6458740234375 1075.04833984375 1071.0350341796875 1064.8819580078125 1057.292236328125 1045.3834228515625 1032.3602294921875 1023.28570556640625 1021.10723876953125 1025.3291015625 1034.5054931640625 1038.8133544921875
1036.10595703125 1033.3623046875 1030.0030517578125 1027.745361328125 1024.9383544921875 1022.32879638671875 1018.56378173828125 1013.37774658203125 1007.92218017578125 993.21966552734375 987.24884033203125 998.7440185546875 1012.3572998046875 1023.025390625 1032.5596923828125 1043.0498046875 1050.28076171875 1051.8751220703125 1045.98583984375 1037.4501953125 1027.368408203125 1014.05535888671875 1008.92657470703125 999.7857666015625 990.2744140625 980.41796875 983.60089111328125 991.61151123046875 1004.90557861328125 1018.1396484375 1027.450439453125 1037.2071533203125 1047.672607421875 1050.082763671875 1051.49560546875 1049.1767578125 1049.326416015625 1046.854736328125 1041.479248046875 1028.572021484375 1018.09716796875 1011.33673095703125 1012.6297607421875 1015.822998046875 1014.31781005859375 1010.92120361328125 1005.7681884765625 1000.115234375 994.681640625 997.0565185546875 1001.30792236328125 1004.32452392578125 1006.262451171875 1012.12982177734375 1014.55010986328125 1019.23541259765625 1025.1199951171875 1033.6580810546875 1044.0712890625 1053.3372802734375 1060.68603515625 1063.875 1067.236572265625 1071.2882080078125 1079.2613525390625 1085.657470703125 1100.2779541015625 1115.56494140625 1128.021240234375 1136.846435546875 1141.9761962890625 1143.9405517578125 1144.349609375 1144.0987548828125 1143.2452392578125 1142.621337890625 1142.5797119140625 1142.9853515625 1143.87939453125 1144.8238525390625 1145.48828125 1145.6929931640625 1145.0648193359375 1143.425048828125 1138.5550537109375 1129.9658203125 1120.6824951171875 1109.236083984375 1096.9520263671875 1083.52197265625 1075.4522705078125 1069.1285400390625 1061.29736328125 1055.4219970703125 1045.3701171875 1036.3863525390625 1023.60955810546875 1016.6005859375 1016.4119873046875 1023.49554443359375 1028.740234375
1027.431640625 1027.17333984375 1024.5465087890625 1024.5028076171875 1027.08447265625 1026.979248046875 1024.595458984375 1019.3321533203125 1010.00927734375 995.433837890625 983.90081787109375 991.916748046875 1005.45819091796875 1013.6453857421875 1024.454833984375 1033.409912109375 1042.8408203125 1045.880126953125 1040.81298828125 1030.029296875 1019.76690673828125 1008.51629638671875 1003.456787109375 996.399169921875 989.4312744140625 980.4425048828125 979.3370361328125 986.609619140625 1000.46563720703125 1012.156494140625 1019.87750244140625 1031.2283935546875 1043.8583984375 1047.159423828125 1048.8004150390625 1045.6983642578125 1045.3443603515625 1042.9588623046875 1037.726318359375 1028.47802734375 1015.0074462890625 1004.84906005859375 1001.75457763671875 1003.80889892578125 1003.2928466796875 999.6181640625 996.51373291015625 993.627685546875 992.23101806640625 994.25018310546875 998.48736572265625 1003.41650390625 1006.1817626953125 1012.26898193359375 1015.83111572265625 1019.6373291015625 1022.61004638671875 1027.078369140625 1035.3980712890625 1044.5968017578125 1052.91015625 1056.5150146484375 1061.046630859375 1065.859130859375 1074.6982421875 1085.5257568359375 1100.9432373046875 1115.1663818359375 1127.3211669921875 1136.0821533203125 1141.4195556640625 1142.9141845703125 1142.793212890625 1142.080322265625 1140.8157958984375 1139.4219970703125 1140.2393798828125 1141.6114501953125 1143.5625 1144.4322509765625 1144.684326171875 1144.4945068359375 1141.4283447265625 1135.714111328125 1126.7037353515625 1119.1351318359375 1111.3883056640625 1101.5963134765625 1090.8724365234375 1080.527587890625 1072.378173828125 1063.973876953125 1055.0709228515625 1049.263427734375 1040.802490234375 1033.86328125 1024.403076171875 1014.71942138671875 1010.89788818359375 1012.8751220703125 1015.920166015625
1012.29522705078125 1011.54791259765625 1011.24700927734375 1013.0308837890625 1017.59130859375 1019.61785888671875 1021.64129638671875 1018.47833251953125 1008.5718994140625 996.64697265625 981.66925048828125 985.8070068359375 998.28912353515625 1005.57720947265625 1014.34698486328125 1023.37322998046875 1033.5059814453125 1039.884521484375 1037.6787109375 1026.7235107421875 1015.22369384765625 1006.73529052734375 1000.67333984375 995.753662109375 990.094970703125 982.1495361328125 977.7406005859375 981.48138427734375 993.60406494140625 1003.24920654296875 1011.88543701171875 1027.791748046875 1041.736328125 1046.919921875 1046.40625 1040.7125244140625 1038.050048828125 1033.6402587890625 1030.4210205078125 1023.52020263671875 1014.79815673828125 1002.08221435546875 996.35595703125 995.2777099609375 994.294677734375 991.61199951171875 989.986083984375 989.28851318359375 991.02593994140625 995.0062255859375 1000.8251953125 1003.64312744140625 1007.0955810546875 1011.7274169921875 1017.01007080078125 1022.04345703125 1025.24853515625 1027.7584228515625 1032.0677490234375 1038.3934326171875 1046.301025390625 1051.425048828125 1056.3876953125 1063.3287353515625 1074.4547119140625 1084.951904296875 1098.2723388671875 1110.7901611328125 1121.3558349609375 1131.47314453125 1136.3995361328125 1139.0394287109375 1138.7540283203125 1137.6829833984375 1135.9105224609375 1133.556396484375 1135.8599853515625 1138.2515869140625 1141.5980224609375 1142.7449951171875 1142.0787353515625 1139.3018798828125 1131.5889892578125 1121.776123046875 1111.519775390625 1106.123291015625 1101.311767578125 1092.50537109375 1083.5333251953125 1076.2578125 1067.751708984375 1059.4755859375 1051.099853515625 1043.9244384765625 1038.5311279296875 1031.8524169921875 1023.06268310546875 1015.36688232421875 1008.0523681640625 1005.68634033203125 1005.384765625
1002.67144775390625 1000.66387939453125 999.99658203125 998.5029296875 999.9271240234375 1004.17694091796875 1009.67584228515625 1008.98828125 1002.81549072265625 993.152099609375 979.012939453125 981.87701416015625 991.2578125 999.89251708984375 1005.70965576171875 1014.52008056640625 1024.1856689453125 1033.5006103515625 1035.304931640625 1027.9534912109375 1016.6087646484375 1009.18719482421875 1003.49945068359375 998.49102783203125 992.98541259765625 985.5482177734375 979.0595703125 977.701904296875 985.10540771484375 994.11663818359375 1006.47283935546875 1024.2147216796875 1038.115966796875 1044.9664306640625 1044.2509765625 1035.7694091796875 1029.5887451171875 1022.5831298828125 1019.6370849609375 1015.53857421875 1008.38482666015625 999.53643798828125 991.0057373046875 988.9736328125 987.88031005859375 988.24761962890625 989.32177734375 991.67437744140625 996.56427001953125 1002.9898681640625 1008.955810546875 1010.09783935546875 1011.10406494140625 1011.38995361328125 1016.5291748046875 1022.93402099609375 1027.80712890625 1031.2003173828125 1035.648681640625 1039.229248046875 1043.77734375 1049.4498291015625 1054.2459716796875 1062.4287109375 1072.8394775390625 1081.8792724609375 1091.779296875 1102.74755859375 1114.6234130859375 1122.863525390625 1128.943115234375 1130.63818359375 1131.1878662109375 1130.2457275390625 1129.0364990234375 1128.04541015625 1130.5357666015625 1133.138671875 1135.8101806640625 1136.37353515625 1134.090576171875 1128.0333251953125 1117.3443603515625 1106.629150390625 1096.6259765625 1092.728515625 1090.069091796875 1082.999755859375 1075.8857421875 1071.782470703125 1067.027099609375 1060.8663330078125 1051.0477294921875 1045.099365234375 1039.382080078125 1031.843017578125 1024.29736328125 1017.38232421875 1008.0869140625 1003.0048828125 1002.8935546875
999.8525390625 998.201416015625 996.93682861328125 992.963134765625 991.86572265625 990.86859130859375 994.821533203125 994.43017578125 991.7900390625 985.9859619140625 976.32427978515625 979.99151611328125 987.84735107421875 998.2646484375 1002.57220458984375 1009.21405029296875 1017.748779296875 1027.4862060546875 1032.95556640625 1030.69873046875 1021.4251708984375 1013.387451171875 1006.73065185546875 1001.67816162109375 996.2989501953125 990.69097900390625 984.929443359375 980.3619384765625 977.8092041015625 986.72406005859375 1002.6572265625 1018.94818115234375 1032.8272705078125 1040.0777587890625 1039.787841796875 1032.441650390625 1021.877685546875 1014.724609375 1006.98828125 1003.43450927734375 998.36639404296875 991.41632080078125 985.4442138671875 984.9776611328125 986.88299560546875 991.949462890625 994.6337890625 998.14349365234375 1005.64447021484375 1014.07769775390625 1018.3280029296875 1022.12554931640625 1019.98944091796875 1015.91253662109375 1017.00299072265625 1022.380859375 1029.286865234375 1035.4404296875 1040.7528076171875 1044.6793212890625 1046.5623779296875 1050.57958984375 1054.92822265625 1059.7811279296875 1068.89697265625 1076.4298095703125 1085.650390625 1096.884033203125 1107.3883056640625 1114.250732421875 1118.9443359375 1119.5611572265625 1121.0360107421875 1121.1951904296875 1121.9000244140625 1122.8675537109375 1124.30859375 1124.9454345703125 1123.8306884765625 1122.983642578125 1120.732666015625 1115.1007080078125 1103.84814453125 1094.4058837890625 1083.8619384765625 1079.6890869140625 1077.2552490234375 1072.69140625 1067.81591796875 1066.5010986328125 1065.664794921875 1065.0611572265625 1057.09326171875 1052.0411376953125 1045.048583984375 1035.918212890625 1028.9022216796875 1020.96783447265625 1010.68060302734375 1003.09954833984375 1002.77252197265625
1005.5369873046875 1003.05474853515625 1000.4813232421875 995.69140625 995.22467041015625 987.292236328125 984.70263671875 982.9327392578125 982.64141845703125 978.89373779296875 975.40911865234375 978.2216796875 988.328369140625 997.68365478515625 1004.04217529296875 1008.09649658203125 1015.34222412109375 1023.01483154296875 1028.7664794921875 1032.6461181640625 1028.550537109375 1019.172119140625 1011.859619140625 1006.1981201171875 1001.22283935546875 996.071044921875 992.61328125 987.82196044921875 977.31304931640625 980.44561767578125 995.838134765625 1010.57220458984375 1023.43994140625 1033.9019775390625 1034.1170654296875 1025.676513671875 1015.2330322265625 1008.17828369140625 997.0543212890625 992.57061767578125 987.8397216796875 984.08056640625 984.25048828125 985.0721435546875 989.78955078125 998.40234375 1002.66094970703125 1004.28515625 1010.593017578125 1020.574462890625 1026.7313232421875 1031.638427734375 1031.8013916015625 1027.0843505859375 1019.88818359375 1022.2320556640625 1029.85888671875 1037.1195068359375 1044.429443359375 1049.60107421875 1052.3880615234375 1053.6759033203125 1058.513916015625 1062.160888671875 1067.5830078125 1074.732177734375 1082.2213134765625 1092.785400390625 1097.950927734375 1106.1436767578125 1108.40478515625 1110.44287109375 1112.2808837890625 1114.7384033203125 1116.473388671875 1117.373291015625 1117.1300048828125 1112.4036865234375 1106.387939453125 1105.447998046875 1104.1912841796875 1101.0628662109375 1090.8443603515625 1083.4334716796875 1073.7713623046875 1066.587158203125 1063.8343505859375 1061.232177734375 1058.7069091796875 1058.944091796875 1061.3223876953125 1064.3914794921875 1062.56103515625 1057.0340576171875 1050.51904296875 1043.00390625 1035.28662109375 1025.2681884765625 1014.74249267578125 1005.0684814453125 1002.84881591796875
1023.77911376953125 1016.1197509765625 1008.68267822265625 1002.3304443359375 997.58062744140625 992.39422607421875 986.25518798828125 983.99853515625 986.14459228515625 979.93988037109375 976.57861328125 973.97857666015625 984.96484375 995.115234375 1002.38330078125 1008.21697998046875 1012.50830078125 1016.82867431640625 1024.7906494140625 1030.08056640625 1032.780517578125 1026.5859375 1018.07666015625 1011.12640380859375 1005.98822021484375 1001.5242919921875 998.6357421875 991.836181640625 980.421875 976.55572509765625 986.2818603515625 999.31219482421875 1013.0963134765625 1023.5103759765625 1024.14111328125 1016.05877685546875 1008.37176513671875 1000.65838623046875 991.546875 985.55145263671875 984.6591796875 984.70965576171875 987.16552734375 987.88983154296875 991.35076904296875 1001.0281982421875 1008.947509765625 1012.07867431640625 1018.01983642578125 1023.76397705078125 1033.3095703125 1038.8975830078125 1042.0540771484375 1037.861328125 1027.981689453125 1024.3302001953125 1028.926513671875 1034.8978271484375 1045.5941162109375 1052.9737548828125 1057.3013916015625 1059.4017333984375 1063.1009521484375 1067.3037109375 1072.277587890625 1076.575927734375 1081.298828125 1088.4146728515625 1094.3502197265625 1098.7340087890625 1100.9312744140625 1104.594970703125 1107.897216796875 1111.5880126953125 1113.0362548828125 1113.3221435546875 1110.660400390625 1098.9251708984375 1090.112060546875 1087.9053955078125 1088.0750732421875 1088.4454345703125 1080.6861572265625 1071.99072265625 1064.303466796875 1054.9373779296875 1051.8101806640625 1050.420654296875 1048.7906494140625 1048.9381103515625 1055.97021484375 1060.7113037109375 1061.7069091796875 1057.627197265625 1052.2564697265625 1046.3255615234375 1040.03955078125 1030.009521484375 1018.20928955078125 1006.9786376953125 1001.05914306640625
1031.3206787109375 1023.35516357421875 1016.76702880859375 1009.51220703125 1000.43731689453125 994.593505859375 988.6334228515625 989.03546142578125 993.1402587890625 989.51116943359375 981.2530517578125 970.9241943359375 976.58538818359375 986.98968505859375 995.97625732421875 1004.0169677734375 1006.25787353515625 1008.68365478515625 1017.75103759765625 1025.9493408203125 1033.5531005859375 1032.980712890625 1026.0791015625 1017.17535400390625 1010.777587890625 1007.38897705078125 1002.33599853515625 995.45556640625 983.72918701171875 974.65142822265625 974.93328857421875 987.7720947265625 1001.29669189453125 1011.23748779296875 1011.80975341796875 1005.2974853515625 1000.63446044921875 996.789306640625 987.104248046875 983.75048828125 988.73455810546875 992.24847412109375 994.197021484375 992.9368896484375 994.708740234375 1000.2183837890625 1012.43707275390625 1017.1201171875 1022.84539794921875 1028.167724609375 1036.03466796875 1045.544921875 1049.58740234375 1048.071044921875 1039.210693359375 1029.166015625 1028.6160888671875 1032.376708984375 1041.57568359375 1053.1622314453125 1060.4686279296875 1065.0360107421875 1068.2386474609375 1072.664794921875 1076.7076416015625 1080.3236083984375 1083.993896484375 1089.252197265625 1091.8514404296875 1096.3179931640625 1098.822265625 1102.6234130859375 1105.703369140625 1109.3284912109375 1110.732421875 1109.680908203125 1098.891357421875 1086.3453369140625 1078.470458984375 1073.5654296875 1076.452392578125 1078.4625244140625 1072.6136474609375 1065.89013671875 1054.6724853515625 1046.5401611328125 1042.1658935546875 1040.0615234375 1038.974609375 1041.923828125 1049.411376953125 1056.7991943359375 1056.5760498046875 1054.099853515625 1049.8543701171875 1044.424072265625 1040.01904296875 1032.2235107421875 1020.26715087890625 1009.73345947265625 1000.04541015625
1034.4300537109375 1027.1646728515625 1018.92352294921875 1008.02032470703125 1000.60577392578125 992.93719482421875 991.3448486328125 994.26092529296875 998.75592041015625 995.9925537109375 986.01641845703125 974.1937255859375 971.60064697265625 978.57757568359375 987.1578369140625 996.48565673828125 997.20477294921875 1000.392822265625 1010.078369140625 1023.1405029296875 1034.8289794921875 1038.197021484375 1032.8648681640625 1024.61767578125 1015.68426513671875 1010.4588623046875 1005.16021728515625 996.845703125 985.1004638671875 974.3785400390625 972.68902587890625 979.44781494140625 992.10369873046875 1001.32989501953125 1002.15911865234375 1000.142822265625 995.62896728515625 993.11529541015625 983.16766357421875 983.7659912109375 992.04840087890625 998.98272705078125 1001.6553955078125 1002.1011962890625 999.75872802734375 999.89300537109375 1012.75799560546875 1020.58197021484375 1025.3221435546875 1031.333984375 1035.3037109375 1048.4571533203125 1054.930419921875 1053.727294921875 1044.539306640625 1034.6837158203125 1029.75830078125 1032.602783203125 1039.9998779296875 1049.5303955078125 1062.935302734375 1068.501708984375 1072.4100341796875 1076.6888427734375 1080.14599609375 1083.324462890625 1086.6832275390625 1090.006591796875 1092.201171875 1095.2652587890625 1098.838623046875 1101.4737548828125 1104.800537109375 1109.55078125 1109.592041015625 1103.3505859375 1088.008544921875 1078.2679443359375 1071.6416015625 1066.4150390625 1068.9237060546875 1070.11083984375 1067.766845703125 1057.9635009765625 1048.486572265625 1039.5694580078125 1034.8692626953125 1030.8447265625 1030.9871826171875 1035.27587890625 1044.16552734375 1053.8948974609375 1053.50927734375 1049.3995361328125 1044.87890625 1041.270263671875 1040.125244140625 1033.3360595703125 1023.7666015625 1013.48321533203125 1001.2919921875
1030.5462646484375 1021.60162353515625 1014.21258544921875 1006.01416015625 996.18646240234375 993.83123779296875 994.672119140625 998.057861328125 1001.24407958984375 999.31292724609375 988.796142578125 978.060791015625 969.04193115234375 976.733154296875 984.64617919921875 989.9609375 992.55712890625 996.29852294921875 1006.90887451171875 1022.352783203125 1036.5853271484375 1043.1201171875 1039.564453125 1030.7122802734375 1021.41851806640625 1014.37042236328125 1008.7939453125 998.87396240234375 988.23553466796875 980.35711669921875 972.47784423828125 972.638427734375 983.53692626953125 992.65350341796875 995.318115234375 994.33685302734375 988.84503173828125 987.42852783203125 983.00494384765625 984.04376220703125 992.87677001953125 1000.53802490234375 1006.79681396484375 1004.78192138671875 1001.3248291015625 1001.7646484375 1012.251708984375 1023.8890380859375 1028.930419921875 1032.790771484375 1034.932861328125 1046.5362548828125 1055.0391845703125 1054.461181640625 1046.670654296875 1035.9031982421875 1032.8333740234375 1034.494140625 1038.179931640625 1050.282470703125 1060.5018310546875 1070.899658203125 1074.564208984375 1079.825439453125 1084.2808837890625 1087.1962890625 1090.0496826171875 1092.9034423828125 1095.1668701171875 1098.3492431640625 1099.5869140625 1101.9635009765625 1104.814453125 1108.3299560546875 1106.727294921875 1097.4166259765625 1085.64501953125 1073.7706298828125 1066.310546875 1061.3399658203125 1060.979248046875 1062.2401123046875 1059.7083740234375 1052.9720458984375 1043.310546875 1034.0335693359375 1029.739990234375 1024.7314453125 1026.4339599609375 1032.9439697265625 1043.4168701171875 1048.8262939453125 1047.779052734375 1043.0572509765625 1041.3048095703125 1040.8017578125 1039.2794189453125 1032.9449462890625 1023.82763671875 1013.60406494140625 1002.4735107421875
1026.8973388671875 1018.0955810546875 1008.86517333984375 1002.07098388671875 997.5899658203125 998.67340087890625 1001.5338134765625 1002.84722900390625 1004.63079833984375 1004.3248291015625 996.0714111328125 983.237060546875 971.25335693359375 968.62054443359375 974.92474365234375 981.446533203125 987.6063232421875 996.22808837890625 1009.4720458984375 1024.786865234375 1041.8258056640625 1047.0701904296875 1045.583984375 1035.4561767578125 1026.051513671875 1019.6717529296875 1013.690673828125 1007.4130859375 998.9263916015625 987.83453369140625 976.14117431640625 971.12969970703125 972.66680908203125 976.752197265625 978.19317626953125 980.1982421875 980.06842041015625 981.08209228515625 982.11279296875 987.08734130859375 995.5758056640625 1004.90850830078125 1010.75299072265625 1011.967041015625 1006.58038330078125 1003.8123779296875 1009.296142578125 1022.48419189453125 1030.8736572265625 1033.5748291015625 1036.38330078125 1042.060791015625 1053.802001953125 1054.3609619140625 1048.32958984375 1038.89306640625 1036.21484375 1037.84423828125 1040.77001953125 1046.3447265625 1057.106689453125 1071.0523681640625 1078.9674072265625 1082.927490234375 1087.3072509765625 1093.471923828125 1098.9083251953125 1099.962646484375 1099.90283203125 1099.1488037109375 1102.0731201171875 1102.943115234375 1104.7113037109375 1105.4228515625 1101.1236572265625 1092.85595703125 1083.09716796875 1071.4544677734375 1064.0289306640625 1057.7142333984375 1055.8531494140625 1055.91162109375 1052.7596435546875 1047.4248046875 1035.8565673828125 1030.1888427734375 1022.28204345703125 1019.29217529296875 1023.50433349609375 1031.474609375 1041.6036376953125 1041.875 1040.7850341796875 1037.961669921875 1037.8931884765625 1037.7830810546875 1036.451416015625 1029.486328125 1019.5556640625 1008.13763427734375 998.1513671875
1021.63067626953125 1013.0882568359375 1007.24981689453125 1002.65283203125 1003.29473876953125 1007.0164794921875 1012.68487548828125 1014.6580810546875 1014.29296875 1008.41668701171875 1000.38629150390625 991.497802734375 979.55767822265625 966.8709716796875 970.0115966796875 975.4525146484375 989.11505126953125 1002.42706298828125 1016.96148681640625 1032.06787109375 1041.414306640625 1048.0965576171875 1043.6475830078125 1037.1295166015625 1026.3905029296875 1020.575439453125 1017.1064453125 1013.82855224609375 1005.21075439453125 994.8447265625 979.805419921875 972.53912353515625 972.88763427734375 974.73260498046875 978.18695068359375 977.83587646484375 978.375 981.25830078125 984.5345458984375 990.70013427734375 1000.0272216796875 1008.27972412109375 1015.42535400390625 1018.7032470703125 1016.4576416015625 1009.054443359375 1010.85821533203125 1019.773193359375 1032.591796875 1036.1685791015625 1039.000244140625 1042.38916015625 1049.1778564453125 1051.721923828125 1049.40380859375 1043.6090087890625 1043.1279296875 1041.953125 1045.3885498046875 1048.2857666015625 1055.20556640625 1068.539306640625 1078.89013671875 1086.4552001953125 1092.501220703125 1099.668701171875 1104.9068603515625 1108.1470947265625 1105.9892578125 1104.0906982421875 1101.6181640625 1101.547119140625 1101.3790283203125 1098.8232421875 1093.4085693359375 1085.209716796875 1075.7987060546875 1068.126953125 1056.9842529296875 1051.1884765625 1046.61572265625 1045.92578125 1044.501708984375 1038.974365234375 1031.6156005859375 1022.8359375 1014.4326171875 1013.583740234375 1021.73468017578125 1031.6927490234375 1038.9658203125 1039.739501953125 1035.615478515625 1030.5159912109375 1029.22216796875 1030.1832275390625 1029.897216796875 1022.37200927734375 1010.94488525390625 999.7691650390625 994.23760986328125
1019.1993408203125 1012.27825927734375 1008.37701416015625 1008.74432373046875 1011.91632080078125 1015.42706298828125 1022.01959228515625 1022.95098876953125 1019.27032470703125 1013.862060546875 1005.43463134765625 997.32275390625 986.30877685546875 972.743896484375 966.221923828125 973.628173828125 987.458251953125 1001.0008544921875 1016.3287353515625 1029.93701171875 1038.95654296875 1043.3017578125 1037.712890625 1032.1259765625 1020.8282470703125 1017.32806396484375 1015.30755615234375 1011.82666015625 1003.023681640625 992.122314453125 977.2568359375 976.6083984375 979.4422607421875 979.21356201171875 980.0740966796875 982.021240234375 986.356201171875 987.76324462890625 991.313232421875 997.75311279296875 1005.7496337890625 1012.68170166015625 1018.8621826171875 1023.1014404296875 1023.26483154296875 1018.62908935546875 1014.27716064453125 1018.96142578125 1030.767578125 1039.3026123046875 1042.49609375 1045.5797119140625 1049.2193603515625 1050.1104736328125 1050.1693115234375 1049.5711669921875 1054.23095703125 1053.4859619140625 1051.869384765625 1052.1651611328125 1056.0313720703125 1065.8145751953125 1077.7996826171875 1087.409423828125 1096.7904052734375 1104.3502197265625 1107.1845703125 1107.26220703125 1104.486328125 1102.777587890625 1100.2647705078125 1096.587890625 1093.7314453125 1089.131591796875 1085.899169921875 1079.4735107421875 1073.1297607421875 1064.1890869140625 1052.98876953125 1044.06005859375 1038.8463134765625 1035.8717041015625 1035.984130859375 1031.3740234375 1026.49169921875 1017.23468017578125 1008.6546630859375 1009.8890380859375 1020.59326171875 1032.04443359375 1036.369873046875 1036.0340576171875 1029.9423828125 1023.62548828125 1021.52764892578125 1023.92047119140625 1022.87322998046875 1013.61767578125 1002.0513916015625 994.3250732421875 992.373779296875
