ncols        596
nrows        40
xllcorner    -53.7501560361
yllcorner    -28.4669825331
cellsize     0.000269494585
NODATA_value  -1
347 347 347 347 347 347 347 347 347 347 347 347 347 347 348 348 348 348 348 349 348 347 347 347 347 347 347 347 348 351 354 358 361 363 365 366 367 367 366 365 366 366 367 368 369 371 372 374 375 378 380 381 383 385 387 388 389 391 392 392 394 395 395 396 398 400 400 400 400 400 400 400 400 399 397 394 391 389 387 386 385 385 385 385 387 390 393 395 398 399 402 403 404 404 404 405 406 406 406 406 406 406 406 407 409 410 410 411 413 415 416 417 417 416 416 416 415 413 411 409 407 405 404 404 405 405 404 403 403 404 407 410 413 416 418 420 422 424 425 426 428 428 429 429 430 431 430 430 429 429 429 428 426 425 425 427 428 428 427 426 426 425 423 421 418 416 413 411 409 407 405 403 402 400 397 395 394 394 396 397 399 401 402 404 406 409 411 413 413 413 414 414 414 414 413 412 412 412 412 411 410 409 409 408 406 404 402 401 399 395 392 390 390 389 389 390 391 392 395 396 397 398 399 402 406 408 410 412 414 415 417 418 420 422 424 426 427 429 429 430 430 431 432 432 432 432 432 431 430 430 430 430 429 428 425 423 423 421 418 414 411 409 407 403 400 397 394 392 389 387 385 384 383 382 382 382 382 384 388 391 393 395 397 398 398 396 394 393 392 392 393 394 394 396 397 399 400 401 401 401 401 403 404 406 408 410 411 412 414 415 415 415 416 415 415 414 414 414 413 412 410 409 407 406 404 402 400 398 395 392 391 391 392 393 394 395 395 394 395 397 398 397 397 397 397 397 397 398 398 398 399 400 403 405 407 409 410 412 413 413 412 412 412 411 409 407 405 404 404 403 403 404 405 405 405 405 406 407 409 411 414 416 417 418 418 419 420 423 426 427 427 426 427 427 427 427 427 428 430 431 431 430 429 428 428 428 429 431 432 433 434 434 432 432 431 430 429 429 428 428 427 425 424 423 421 418 416 414 411 408 405 405 405 405 407 410 411 412 413 414 413 412 412 411 410 410 410 410 410 410 412 412 413 413 414 414 415 416 417 417 418 420 421 422 423 422 420 418 418 418 418 418 418 418 419 419 420 422 425 426 426 426 426 427 427 427 427 426 425 424 424 425 426 426 426 426 426 426 429 432 436 439 440 440 440 439 439 438 436 435 434 434 436 439 442 445 449 451 452 454 457 459 459 456 455 455 457 459 459 461 463 465 466 466 465 465 465 465 465 465 464 465 467 469 470 472 474 477 479 480 482 482 483 483 482 481 479 477 474 471 467 465 464 463 462 461 461 462 464 466 468 470 471 470 468 466 466 466 466 466 466 468 470 472 473 474 475 476 477 480 483 484 483 483 483 484
347 347 347 347 348 348 348 347 347 347 347 347 347 348 348 348 348 348 348 348 347 347 347 347 347 347 347 347 349 352 356 359 361 363 366 369 370 371 371 370 369 370 372 373 373 373 375 378 378 381 382 382 383 386 387 388 389 390 391 391 392 393 395 396 398 400 401 401 400 400 400 400 400 400 398 395 392 390 390 389 387 386 386 386 387 390 393 396 398 400 401 402 403 403 403 405 406 406 406 406 406 406 407 409 410 412 412 413 414 416 417 418 418 416 415 415 414 412 410 409 408 406 406 406 406 406 405 404 403 404 406 410 412 416 418 419 421 423 425 427 428 429 430 430 431 432 432 431 430 430 429 428 428 427 428 430 431 430 430 429 427 426 424 423 420 417 414 412 411 410 407 405 403 401 398 396 395 395 397 399 402 404 405 407 408 410 411 413 414 415 416 416 416 415 414 414 414 413 413 412 411 410 409 408 406 404 403 401 398 395 393 392 390 389 389 390 391 393 395 396 397 398 399 402 405 407 409 411 414 415 416 418 421 423 425 427 428 428 429 431 432 433 433 434 434 434 434 433 432 432 432 431 430 428 425 424 423 421 417 414 411 409 407 404 400 397 395 392 389 387 386 385 384 383 383 383 383 385 388 391 394 396 399 399 399 398 397 396 394 395 397 398 398 398 400 402 403 405 405 404 403 403 404 406 408 410 412 414 415 416 415 415 415 415 414 413 413 413 412 411 410 409 407 405 402 400 398 396 394 392 391 391 392 393 393 393 393 393 395 396 396 395 395 395 396 396 396 396 397 397 397 399 402 404 406 408 410 411 411 410 410 410 410 409 407 406 404 402 401 401 401 402 402 402 402 404 405 405 406 408 411 414 416 418 418 418 419 421 423 425 424 424 424 424 424 424 424 426 426 427 427 427 426 425 424 425 426 427 429 430 431 431 429 429 428 426 425 424 424 424 423 423 422 420 418 416 415 413 409 406 405 405 405 405 406 407 408 410 411 412 410 410 410 410 410 410 410 410 410 410 410 411 412 413 414 414 415 416 416 417 418 419 419 419 419 418 418 418 418 418 418 418 418 418 418 418 418 420 421 422 422 421 421 421 421 421 422 422 422 423 425 426 427 427 427 426 426 426 428 432 436 438 437 436 435 435 435 433 431 431 432 432 433 435 438 441 446 451 452 456 458 460 461 459 457 458 460 461 462 464 466 468 470 469 467 467 467 467 467 467 466 466 467 468 469 470 472 475 476 478 480 481 482 483 482 481 480 478 475 471 469 468 466 466 465 464 464 464 465 467 469 470 470 470 468 466 466 466 466 466 466 466 468 471 473 473 475 476 478 480 482 483 483 484 483 483
347 347 347 347 347 348 348 347 347 347 347 347 347 347 348 348 348 347 347 347 347 347 347 347 347 347 347 347 349 353 357 359 361 364 367 370 372 373 373 373 373 375 377 377 377 377 379 381 382 382 383 383 384 386 387 387 387 388 389 390 391 392 393 395 397 399 401 402 401 401 401 401 401 400 399 396 394 392 392 391 389 388 388 388 388 390 394 397 399 400 400 401 401 402 403 405 406 406 406 407 406 406 408 410 411 412 412 413 414 416 418 418 418 417 415 415 413 412 411 410 409 408 408 408 408 408 407 406 406 406 407 409 412 416 418 419 421 423 425 427 429 431 431 431 432 433 433 433 432 432 430 429 428 428 430 432 433 432 431 430 428 426 425 424 421 418 415 413 413 412 409 407 404 400 397 396 396 396 398 401 404 407 408 409 409 410 411 413 415 416 417 418 417 416 415 415 415 414 413 412 412 412 411 409 407 405 403 400 396 394 393 392 389 389 391 392 393 395 397 398 398 398 400 402 405 406 409 412 415 416 417 419 422 424 426 427 428 429 430 431 433 434 435 435 435 435 434 433 433 433 432 431 430 428 426 425 424 421 417 414 412 411 408 405 402 399 396 392 390 388 386 385 385 384 384 383 384 386 388 391 395 398 400 400 400 400 400 400 399 399 401 401 401 400 402 404 406 407 407 406 405 404 404 405 408 411 412 414 415 416 415 415 415 415 414 413 412 412 411 410 410 409 407 404 402 400 397 395 394 391 391 391 392 392 392 391 391 391 393 394 395 395 395 395 395 395 396 396 397 397 397 398 400 402 405 408 410 410 409 408 408 409 409 408 406 404 402 401 400 400 399 400 400 400 401 403 403 403 404 406 408 411 414 417 418 418 419 420 422 422 422 422 422 422 422 422 422 423 423 423 423 422 421 420 421 422 424 425 426 427 428 427 426 425 424 422 421 421 421 420 420 420 420 418 416 414 412 410 407 405 405 405 405 405 405 406 408 410 411 411 410 410 410 410 410 410 410 410 410 410 410 410 412 413 413 413 414 416 417 418 418 418 418 418 418 418 418 418 418 418 418 418 418 418 418 418 418 418 419 420 419 418 418 418 418 418 419 420 422 425 428 429 429 429 429 427 426 426 427 431 434 435 433 432 432 432 432 430 430 430 431 432 432 433 435 439 445 452 454 458 460 462 462 461 459 459 461 463 464 465 467 470 472 471 469 469 469 469 469 468 467 467 468 468 468 469 471 473 474 476 479 480 482 483 483 482 481 479 475 472 470 469 468 467 467 466 464 464 465 466 468 468 468 468 468 467 466 466 466 466 466 466 467 469 472 473 474 478 480 481 482 483 484 484 484 483
347 347 347 347 347 348 348 348 347 347 347 347 347 347 347 347 347 347 347 347 347 347 347 347 347 347 347 347 349 353 356 359 362 366 368 371 373 374 374 375 377 379 380 381 381 381 381 382 382 382 382 382 382 384 385 385 385 386 386 388 389 390 392 394 397 398 400 401 401 401 401 401 401 400 399 397 395 394 393 391 390 390 390 390 389 391 394 396 398 398 399 399 399 400 402 404 405 406 406 407 407 407 408 409 411 412 412 413 414 416 417 417 417 416 414 414 413 413 412 412 411 410 410 411 411 411 410 410 410 409 408 409 411 415 417 419 421 423 426 428 430 432 433 433 434 434 434 434 433 433 431 429 428 429 431 433 434 433 433 432 430 428 427 424 422 420 417 415 414 414 412 408 404 400 398 397 396 397 399 401 404 407 408 409 409 410 411 413 414 416 417 418 418 417 416 416 416 415 414 413 414 413 412 409 407 404 402 400 396 394 393 392 391 391 394 396 397 399 401 401 400 400 400 403 405 407 409 412 415 417 418 420 423 425 427 428 429 430 431 432 434 435 436 436 435 434 433 432 432 432 432 431 430 428 427 426 424 422 418 416 413 411 409 405 403 400 396 393 391 389 387 385 385 385 384 384 385 387 389 392 397 400 401 401 401 401 403 404 404 403 404 404 404 403 404 407 409 410 410 408 406 406 406 406 408 411 412 413 415 416 416 416 416 416 415 414 413 413 412 410 409 407 405 403 401 399 396 395 394 392 391 391 391 392 391 391 391 391 391 393 395 396 396 394 394 395 395 396 397 397 397 397 399 401 405 408 410 409 407 406 405 406 407 406 404 403 401 400 399 399 398 398 398 398 399 401 402 402 403 405 407 410 413 416 416 418 419 421 422 422 422 422 422 421 420 420 419 419 420 421 420 419 418 417 418 420 422 423 424 424 425 425 424 423 422 420 419 419 419 418 417 417 416 415 414 412 411 409 406 405 405 405 405 405 405 407 409 410 410 410 411 411 410 410 410 410 410 410 410 410 410 410 412 412 412 412 415 418 419 420 419 419 418 418 418 418 418 418 418 418 418 418 418 418 418 418 418 418 419 419 419 418 418 418 418 418 418 421 424 428 432 433 433 433 433 432 429 428 428 430 432 432 430 430 430 431 430 430 430 430 430 432 433 433 434 437 445 452 454 458 461 462 462 461 460 460 462 464 465 465 467 471 473 472 472 472 471 470 470 469 469 469 469 468 468 468 470 471 473 476 478 479 481 482 482 481 480 478 475 471 470 469 468 467 467 465 464 464 464 465 467 467 466 466 467 467 466 466 466 466 466 466 467 470 472 472 475 479 481 482 482 483 484 484 484 484
347 347 347 347 347 347 348 348 347 347 347 347 347 347 347 347 347 347 347 347 347 347 347 347 347 347 347 347 349 352 355 359 364 367 370 372 374 375 376 377 379 380 381 382 382 381 381 380 380 380 379 378 378 379 382 383 384 384 384 386 387 389 391 395 397 397 399 400 400 400 400 400 400 400 400 399 398 397 395 393 391 392 392 391 390 391 393 395 397 397 396 396 397 398 400 403 405 406 406 407 408 409 409 410 412 413 413 413 414 415 415 415 415 415 414 413 413 413 413 413 414 413 413 413 413 413 413 412 411 410 409 410 411 414 416 418 421 423 426 428 430 432 434 434 435 434 434 434 433 433 431 429 429 430 432 434 434 434 433 432 431 430 428 425 422 421 419 416 415 414 412 408 405 402 400 398 397 398 401 402 404 406 407 409 410 411 412 414 415 417 417 417 418 418 417 416 416 416 415 414 414 413 411 409 406 404 401 400 397 395 396 396 395 396 399 400 401 403 405 405 403 402 402 404 406 408 411 413 415 417 419 421 424 426 428 428 430 432 433 433 435 436 437 437 436 435 434 433 432 432 432 432 431 429 428 426 424 421 419 417 414 411 408 406 403 401 398 395 393 390 388 387 386 386 385 386 387 390 392 395 398 401 402 402 402 403 406 407 407 407 406 406 407 407 407 410 412 413 412 410 409 409 408 409 410 411 412 412 413 415 416 416 417 417 416 415 414 414 413 411 409 406 403 401 399 396 394 393 393 392 391 391 391 391 391 391 391 391 391 392 394 395 395 394 394 394 395 396 397 397 397 397 398 401 404 407 408 407 405 404 403 404 405 405 404 403 402 401 399 397 397 397 397 397 398 399 401 401 403 406 408 410 412 415 416 417 419 422 423 423 423 422 421 419 418 417 416 416 417 418 417 416 415 415 416 418 420 422 423 424 424 423 422 421 419 417 416 416 416 415 414 414 413 412 410 409 409 408 406 405 405 405 405 405 405 407 408 408 408 408 410 411 411 411 411 411 410 411 411 410 410 410 411 411 411 412 415 418 421 421 421 420 419 418 418 418 418 418 418 419 419 418 418 418 418 418 418 418 418 418 418 418 418 418 418 418 420 422 426 431 435 437 437 438 438 437 435 433 431 430 430 430 430 430 430 430 430 430 430 430 431 432 432 432 433 436 442 449 451 457 461 462 461 460 459 460 462 464 465 466 468 471 473 474 474 474 473 473 472 471 471 471 470 469 468 468 468 470 472 475 477 478 479 480 480 480 479 478 474 471 469 468 466 464 464 464 464 464 464 464 465 466 466 467 468 468 466 466 466 466 466 466 467 470 472 473 476 479 481 482 483 484 484 484 483 483
347 347 347 347 347 347 347 347 347 347 347 347 347 347 347 347 347 347 347 347 347 347 347 347 347 347 347 347 348 352 356 360 364 367 370 373 375 376 376 378 379 379 380 381 380 379 378 378 378 378 376 373 373 374 378 381 382 383 383 384 386 389 392 395 397 397 398 400 400 401 400 400 400 401 402 401 400 398 396 393 392 392 392 391 390 390 391 393 395 395 395 395 395 397 400 404 406 408 408 408 409 410 411 412 413 413 413 413 414 415 415 415 416 416 415 415 415 415 415 415 416 415 414 414 414 415 415 413 411 410 409 409 410 412 415 418 420 422 425 428 430 432 433 434 434 434 434 434 432 432 431 430 430 432 434 435 435 434 433 432 432 431 430 427 424 421 419 417 416 414 411 408 405 403 400 398 398 400 403 405 406 407 407 409 411 413 414 415 417 418 418 419 420 420 419 418 417 417 416 415 414 412 410 408 407 404 401 399 398 398 399 400 399 401 403 405 405 407 408 408 406 405 405 405 407 409 412 415 416 418 421 422 424 426 428 430 432 433 433 434 435 436 436 437 437 436 435 434 434 434 434 433 432 430 428 426 425 422 419 416 415 413 410 407 405 402 399 397 395 393 391 388 387 387 387 388 391 393 396 398 400 403 405 405 405 406 408 409 409 410 410 410 411 411 410 410 412 414 414 412 412 411 412 412 413 413 413 413 414 415 415 416 417 417 416 415 413 413 412 410 408 405 402 399 396 394 393 392 391 391 391 392 392 392 392 391 391 391 391 391 393 394 394 394 394 394 394 395 396 397 397 397 397 399 402 404 404 403 402 402 402 403 404 404 404 403 402 400 398 396 396 397 397 397 397 398 399 401 403 406 409 410 412 415 416 418 421 423 423 423 423 422 421 418 417 415 413 413 414 414 413 412 412 413 415 416 419 421 423 424 423 421 419 418 416 415 413 413 411 410 409 409 409 408 406 406 406 407 406 405 405 405 405 405 405 407 408 407 406 406 407 409 410 412 412 412 411 411 411 411 410 410 410 410 412 413 415 418 421 422 423 422 421 420 420 420 419 419 419 420 421 420 420 420 420 421 421 418 418 418 418 418 418 418 418 418 420 423 427 433 438 440 442 442 442 442 441 439 436 434 430 430 430 430 430 430 430 430 430 430 431 432 432 432 433 436 440 445 448 454 460 461 460 459 459 461 463 464 465 466 468 471 473 474 475 475 476 475 474 474 473 473 471 470 469 468 468 469 471 473 475 476 476 477 478 478 478 476 474 470 467 465 464 464 464 464 464 464 464 464 465 467 468 468 469 468 467 466 466 466 466 466 466 469 472 473 476 478 480 482 483 484 483 482 481 481
347 347 347 347 347 347 347 347 347 347 347 347 347 347 347 347 347 347 347 347 347 347 347 347 347 347 347 347 349 353 357 360 363 365 369 372 374 375 376 377 378 378 378 378 378 377 376 376 376 375 372 370 369 370 374 377 380 382 382 384 387 391 393 395 397 398 399 401 402 402 402 401 401 402 402 402 401 399 396 393 392 392 392 391 389 388 388 390 392 392 394 394 395 397 400 404 407 409 410 410 411 411 412 413 413 412 412 412 413 414 415 416 417 417 417 418 417 417 416 416 417 416 415 415 415 416 416 415 412 410 409 409 409 411 414 417 419 421 424 426 429 431 431 432 432 433 434 433 432 431 431 431 432 433 434 436 436 435 434 433 432 432 431 429 426 423 421 419 417 414 410 407 405 402 400 399 399 402 405 406 407 408 408 410 412 414 416 417 417 418 420 421 422 422 421 420 419 418 417 416 414 411 410 409 407 404 401 400 400 401 403 403 404 406 408 409 410 410 412 412 410 409 408 407 408 410 413 416 418 420 422 424 426 427 429 431 433 433 434 435 436 436 436 436 437 437 437 436 435 435 434 434 432 429 426 425 424 422 419 417 416 415 412 410 407 404 400 397 396 395 394 391 389 388 388 389 393 395 397 399 402 405 407 407 408 409 411 412 412 413 413 413 413 413 412 412 412 414 414 414 415 415 415 415 415 415 415 415 415 416 416 417 417 416 416 415 413 413 412 410 407 404 401 398 395 393 392 391 391 391 391 392 393 394 395 394 393 393 392 393 394 394 394 394 394 394 394 394 394 394 394 395 396 397 399 400 401 400 400 400 402 403 404 404 404 403 401 398 397 396 397 397 396 396 396 397 399 400 402 406 409 411 412 415 416 419 422 423 423 423 423 423 421 419 417 415 413 411 411 411 411 411 411 412 413 413 416 419 422 423 421 418 416 415 414 412 410 409 407 405 404 404 405 405 404 404 405 406 406 405 405 405 405 405 406 407 407 406 405 405 406 407 409 411 412 412 412 411 411 412 412 412 412 413 415 416 417 418 421 422 423 424 423 423 422 422 422 421 421 422 423 424 424 424 424 424 423 420 418 418 418 418 418 418 418 418 419 422 427 435 441 444 445 446 446 446 445 443 440 436 433 431 430 430 430 430 430 430 430 430 430 432 433 433 434 436 439 443 445 452 457 458 458 458 459 461 462 463 464 466 468 470 473 474 475 476 477 477 476 476 475 474 473 471 469 468 468 468 468 470 472 473 474 475 475 475 475 475 473 469 466 464 464 464 464 464 464 464 464 464 465 468 469 470 470 469 468 467 466 466 466 466 467 469 472 473 476 478 479 481 482 483 482 480 479 479
347 347 347 347 347 347 347 347 347 347 347 347 347 347 347 347 347 347 347 347 347 347 347 347 347 347 347 347 349 354 357 360 362 364 368 371 373 374 375 376 376 376 376 376 376 375 374 373 373 372 370 368 367 368 372 375 378 381 381 383 387 391 392 394 396 398 400 402 402 402 402 402 402 402 402 401 400 398 396 394 393 393 392 391 388 386 386 387 389 390 392 393 394 397 401 404 406 408 410 412 412 412 412 412 411 410 410 409 410 412 414 415 416 417 418 418 418 417 416 417 418 418 417 417 418 419 419 417 415 412 410 409 409 410 413 415 418 421 423 426 428 430 431 431 432 434 434 434 433 432 432 432 433 433 435 436 436 436 435 434 433 433 432 430 427 424 421 420 418 415 411 408 405 402 400 400 401 403 405 407 408 409 410 412 415 417 419 420 419 420 422 423 424 423 422 422 421 420 418 416 413 411 410 409 406 404 402 401 402 404 405 406 406 408 411 413 413 414 415 415 413 412 410 409 409 410 413 416 418 420 422 425 427 429 430 432 433 434 436 436 436 437 437 437 437 437 437 436 434 434 433 433 430 427 425 423 423 423 421 419 417 416 414 411 409 405 402 399 397 397 396 393 391 389 389 390 394 396 398 400 404 407 409 409 410 412 413 414 415 415 415 415 414 414 414 414 413 414 415 416 416 417 417 418 418 417 417 417 417 417 417 417 416 416 416 415 414 413 412 410 407 404 401 398 396 393 392 391 391 391 391 393 395 397 398 397 396 396 396 396 396 395 394 394 394 394 394 394 394 394 394 394 394 394 397 398 399 399 399 400 402 404 405 406 406 404 401 398 396 396 396 396 396 396 396 396 398 400 402 405 408 411 412 414 416 419 422 423 423 423 423 423 422 420 419 417 413 410 409 409 409 410 410 410 411 411 412 415 419 420 419 416 414 412 410 408 406 405 403 403 403 403 403 404 405 406 407 406 405 405 405 406 406 406 406 406 405 405 405 405 405 406 408 410 411 412 412 412 412 413 414 414 415 418 419 420 420 421 423 425 425 426 427 426 425 425 425 425 424 425 426 427 428 427 427 425 424 422 420 419 418 418 418 418 418 418 418 421 427 434 441 445 447 448 449 449 449 447 443 440 437 435 432 431 430 430 430 430 430 430 430 433 434 435 435 436 438 441 442 447 452 455 455 455 457 459 461 462 464 467 468 470 472 474 475 477 478 477 477 477 476 475 474 472 469 468 468 468 468 468 469 469 471 473 473 473 473 473 471 469 466 464 464 464 464 464 464 464 464 464 465 468 470 471 471 471 471 470 468 467 467 468 469 470 472 473 475 476 478 479 480 480 479 478 477 476
347 347 347 347 347 347 347 347 347 347 347 347 347 347 347 347 347 347 347 347 347 347 347 347 347 347 347 347 350 354 357 359 361 364 367 370 372 373 374 375 374 374 374 374 374 372 371 370 370 369 367 367 367 369 372 374 377 380 381 383 386 390 392 394 396 398 400 401 402 402 401 401 402 401 400 399 398 397 396 394 393 392 392 390 388 385 383 385 388 390 391 393 394 398 401 404 406 407 409 412 412 412 411 410 409 408 407 407 407 409 411 414 415 416 416 416 417 416 416 417 418 419 419 419 420 421 420 419 417 415 412 410 409 410 412 414 418 421 424 426 428 429 431 432 434 435 436 435 434 434 433 433 433 433 434 435 436 435 435 435 433 432 431 430 428 424 421 420 418 415 412 409 406 404 402 401 403 405 406 408 411 412 413 415 418 420 421 422 422 422 423 425 425 425 424 423 422 421 419 416 414 412 410 408 406 404 403 402 403 405 406 406 408 412 415 417 417 417 416 415 413 412 411 410 410 411 414 418 419 420 422 425 428 430 431 433 434 436 437 437 437 438 438 438 437 437 436 434 433 433 432 431 429 426 424 423 423 423 421 419 417 416 414 412 410 407 405 402 399 398 396 394 392 390 390 392 394 396 399 402 406 409 410 411 412 413 414 416 417 417 417 416 416 416 416 415 415 415 416 417 417 418 419 419 419 418 418 419 419 418 417 416 415 414 414 414 413 412 411 408 407 405 402 399 396 394 392 392 392 392 393 395 397 399 400 400 400 401 401 400 399 397 396 394 394 394 394 394 394 394 394 394 394 394 394 397 399 400 401 401 401 403 405 406 406 404 401 398 396 396 396 396 396 396 396 397 398 400 402 405 407 410 412 414 414 417 420 421 423 423 422 422 422 421 419 417 413 409 407 407 408 408 408 408 408 407 409 411 414 416 416 414 411 409 407 405 403 403 403 403 403 403 404 406 407 408 407 406 405 405 406 407 406 406 405 405 405 405 405 405 405 406 408 409 410 412 413 414 415 416 417 417 419 420 422 423 424 425 426 427 427 429 429 429 427 427 428 428 428 428 428 429 430 430 429 427 426 423 421 420 419 419 418 418 418 418 419 422 428 435 442 446 448 449 450 452 452 451 448 444 441 439 436 434 432 430 430 430 430 432 432 433 434 434 434 436 437 440 440 443 447 450 451 453 456 458 460 462 464 467 469 470 472 474 475 477 478 478 477 476 476 475 473 472 470 468 468 468 468 468 468 468 469 471 473 474 474 473 471 470 467 464 464 464 464 464 464 464 464 464 464 467 470 472 473 473 472 471 469 469 470 471 472 472 473 473 474 475 476 476 476 476 476 475 474 473
347 347 347 348 347 347 347 347 347 347 347 347 347 347 347 347 347 347 347 347 347 347 347 347 347 347 347 348 351 354 357 359 361 363 366 368 370 371 372 373 372 372 373 374 373 371 369 368 368 367 367 367 367 368 371 375 378 380 382 384 386 389 392 394 396 397 398 400 401 401 401 401 402 401 400 398 396 395 394 393 392 391 390 389 386 383 381 383 387 390 392 393 395 398 401 403 405 406 407 410 412 412 411 409 407 405 404 405 405 407 410 412 414 415 416 416 416 415 415 417 418 418 419 420 421 421 420 419 418 416 413 410 409 410 412 414 418 421 424 426 428 430 432 434 436 437 437 436 435 435 434 434 434 434 434 435 435 435 435 435 434 432 432 430 428 425 422 420 418 415 413 410 407 405 403 403 405 408 409 411 413 415 415 417 420 421 422 423 423 423 424 425 426 426 425 424 423 421 419 417 415 412 409 407 406 405 404 404 404 406 406 407 409 413 417 419 419 418 416 415 412 411 411 412 412 413 416 419 420 421 424 427 429 431 433 435 436 437 437 436 437 438 439 438 437 436 435 434 432 432 431 430 428 427 425 424 423 422 420 419 418 416 414 413 411 409 407 404 400 397 395 394 393 392 391 393 394 397 400 404 407 409 410 410 412 414 415 417 418 418 418 418 418 417 417 417 417 417 418 419 419 419 420 420 420 420 420 421 420 419 418 417 415 414 412 411 411 410 409 407 405 404 402 399 397 394 393 393 394 394 395 397 399 401 403 404 404 404 404 403 402 400 398 396 394 394 394 394 394 394 394 394 394 394 394 395 398 400 401 401 401 402 404 405 405 403 400 396 396 396 396 396 396 396 396 397 398 400 403 405 408 410 412 413 414 415 418 420 421 422 422 422 421 420 418 415 411 408 406 405 405 406 406 406 406 405 406 408 410 411 412 410 408 406 404 403 403 403 403 403 403 403 405 407 408 408 406 405 405 405 406 406 405 405 405 405 406 406 406 405 405 406 407 409 411 413 415 416 417 418 419 419 421 422 424 426 427 428 429 429 429 430 430 430 430 429 430 431 432 431 431 431 432 432 432 431 428 424 421 419 419 419 419 419 419 419 420 423 429 436 443 447 449 451 453 454 455 454 452 449 445 441 439 438 436 433 431 431 433 434 434 433 433 433 434 435 437 439 439 441 443 445 447 451 454 455 458 461 464 466 469 471 473 474 475 476 477 477 476 476 475 474 472 470 469 468 468 468 468 468 468 468 470 472 474 475 475 474 473 471 468 465 464 464 464 464 464 464 464 464 466 469 473 475 475 474 473 471 470 470 473 474 474 473 474 474 475 476 475 473 473 473 473 472 472 471
347 349 350 349 348 347 347 347 347 347 347 347 347 347 347 347 347 347 347 347 347 347 347 347 347 347 347 348 351 353 356 359 361 362 364 366 368 369 370 370 371 372 373 373 371 369 368 368 368 367 367 367 367 368 370 374 378 381 383 385 388 390 392 395 396 396 397 399 400 400 401 401 401 400 398 397 395 393 392 391 390 389 388 386 383 381 380 382 385 390 391 393 395 399 401 403 404 405 406 408 410 410 409 408 406 404 403 403 405 407 410 412 413 415 415 415 415 414 414 415 416 417 419 421 421 421 421 421 420 417 414 411 409 409 411 414 417 421 424 427 429 431 433 436 438 438 438 437 435 435 434 434 435 435 435 434 435 434 435 434 434 432 431 429 427 425 423 420 418 415 413 410 406 404 403 403 406 409 411 412 415 416 417 419 421 422 423 424 424 425 426 426 426 426 426 425 423 422 420 418 415 412 409 408 408 408 407 407 406 407 407 407 409 412 417 418 418 417 415 414 412 411 413 414 414 415 417 420 421 423 426 428 430 432 434 436 437 437 436 436 437 438 438 437 437 436 435 433 432 432 431 430 429 428 426 424 423 422 420 418 418 417 415 413 411 408 406 404 400 397 395 395 395 394 393 393 394 396 400 404 407 408 409 410 412 415 417 418 419 419 419 419 419 418 418 419 419 420 420 421 420 420 419 420 421 421 421 421 420 419 419 417 416 414 413 410 409 409 408 406 404 403 400 398 396 395 393 393 394 395 396 398 401 402 404 405 406 405 404 404 403 401 400 398 397 395 394 394 394 394 394 394 394 394 394 394 396 398 400 401 401 402 403 403 404 403 399 396 396 396 396 396 396 396 396 396 398 400 403 405 407 409 411 413 413 415 417 418 420 420 421 420 420 419 417 414 411 408 406 404 404 405 405 406 406 405 405 406 407 408 408 407 405 403 403 403 403 403 403 403 403 403 406 407 408 407 406 405 405 405 406 405 405 405 405 405 407 408 408 407 406 406 407 409 412 413 415 417 418 419 420 421 423 424 426 427 428 430 431 431 431 432 432 432 432 432 432 433 434 434 434 434 434 434 434 433 430 426 421 419 419 419 419 420 420 420 421 425 430 437 443 448 450 452 454 456 458 457 455 452 448 444 442 440 438 436 435 436 436 436 436 435 434 433 435 436 437 439 439 439 440 442 444 448 451 454 457 461 464 466 468 471 473 474 475 475 475 475 475 476 476 474 472 470 469 468 468 468 468 468 469 469 472 474 476 476 476 476 475 473 470 467 464 464 464 464 464 464 464 465 468 472 475 477 477 476 474 473 471 472 474 476 476 475 476 476 477 476 475 472 471 471 471 470 470 470
348 350 351 349 348 347 347 347 347 347 347 347 347 347 347 347 347 347 347 347 347 347 347 347 347 347 347 348 351 353 356 359 361 362 364 366 367 369 369 370 371 372 373 372 371 369 368 368 368 367 367 367 367 368 371 374 378 381 383 385 388 390 392 395 396 396 397 399 400 400 400 401 400 399 398 397 395 393 392 391 389 388 387 385 382 381 380 381 385 389 391 393 395 399 401 402 404 405 406 408 409 409 409 408 406 403 402 403 405 407 410 412 413 414 414 414 414 414 414 415 416 417 419 421 422 422 422 422 421 418 415 412 409 410 412 414 417 421 424 427 430 431 433 436 438 439 438 437 436 435 435 435 435 435 435 435 435 434 435 434 434 432 431 429 427 425 423 420 418 415 413 410 406 404 403 403 406 409 411 413 415 417 418 419 421 422 424 424 425 426 426 426 426 426 426 425 423 422 420 418 415 412 409 408 408 408 408 408 408 408 408 408 409 412 416 417 417 416 415 414 412 412 413 414 415 416 418 420 421 423 426 429 430 432 434 436 437 437 436 436 437 437 438 437 437 436 435 433 432 432 431 430 429 428 426 424 423 422 420 418 418 417 415 413 411 408 406 403 400 397 395 395 395 394 393 393 394 396 400 404 407 408 409 410 413 416 417 419 419 419 420 420 420 419 419 419 420 421 421 421 421 420 420 420 421 422 421 421 420 419 419 417 416 414 413 410 409 409 408 406 404 403 400 397 396 395 394 393 394 395 396 398 401 402 404 406 406 405 405 404 403 402 401 399 398 396 394 394 394 394 394 394 394 394 394 394 396 398 400 401 401 402 403 403 404 403 399 396 396 396 396 396 396 396 396 396 397 400 403 405 407 409 411 413 413 415 417 418 419 420 420 420 420 419 417 413 411 408 406 404 404 405 405 406 406 405 405 406 406 407 407 406 404 403 403 403 403 403 403 403 403 404 406 407 408 407 406 405 405 405 406 405 405 405 405 405 407 408 408 407 406 406 407 409 411 413 415 417 419 419 421 422 423 425 426 428 429 431 432 432 432 432 432 432 432 433 433 434 435 435 435 435 435 434 434 433 431 426 422 419 419 419 419 420 420 420 422 425 430 437 443 448 450 453 455 457 459 458 455 453 449 445 443 441 439 437 437 438 438 438 437 435 434 434 435 436 438 439 439 439 439 441 443 447 451 453 456 461 464 466 468 471 473 474 475 475 475 475 475 476 476 474 472 471 469 468 468 468 468 468 469 470 473 475 477 477 477 477 476 474 471 467 464 464 464 464 464 464 464 465 469 472 475 477 478 476 474 473 472 473 475 477 476 476 476 476 477 477 475 472 471 471 470 470 470 469
348 350 351 350 349 347 347 347 347 347 347 347 347 347 347 347 347 347 347 347 347 347 347 347 347 347 347 347 349 352 354 358 360 361 362 363 365 366 367 368 370 371 372 371 368 367 367 368 368 368 367 367 368 369 371 375 378 381 383 385 388 391 393 395 396 397 398 398 398 399 399 399 398 397 396 395 393 391 390 388 387 386 385 383 381 380 379 380 385 389 391 393 396 398 400 400 402 404 405 407 408 407 407 406 404 401 401 402 404 406 409 410 410 411 411 411 412 411 412 414 416 418 421 424 425 426 426 427 425 423 419 416 414 414 415 417 418 421 424 427 430 431 434 436 438 438 438 438 437 437 436 436 437 437 437 436 435 434 434 434 433 432 430 428 427 425 423 421 418 416 413 409 405 403 403 404 408 412 414 415 417 419 419 421 422 424 425 426 427 427 428 427 426 426 425 424 423 421 419 418 415 412 411 410 410 410 411 412 412 411 410 409 410 412 414 415 415 415 414 414 413 413 414 416 417 418 419 422 423 424 426 429 430 432 435 436 436 435 435 435 435 435 436 436 436 435 434 433 432 432 431 431 430 428 426 424 422 420 418 417 416 415 414 412 409 407 405 402 399 397 396 395 395 395 395 395 395 396 399 402 406 408 410 411 414 417 418 419 420 420 421 422 422 421 422 422 422 423 424 424 423 422 422 422 422 422 422 421 420 419 418 418 417 414 412 410 409 408 406 404 403 402 399 397 396 396 395 394 394 395 397 400 402 404 406 408 408 407 407 406 405 404 403 402 401 399 397 395 394 394 394 394 394 394 394 394 394 396 398 399 400 401 402 403 403 402 399 396 396 396 396 396 396 396 397 397 397 399 402 405 407 409 411 413 414 415 416 417 418 419 418 418 418 418 416 413 411 408 406 403 403 404 405 406 406 405 405 405 404 404 404 404 403 403 403 403 403 403 403 404 405 405 406 407 407 407 406 405 405 405 405 405 405 405 405 405 406 407 408 407 407 407 407 409 410 412 415 417 419 420 422 423 425 427 429 430 431 432 433 434 434 434 434 434 433 434 435 435 436 437 437 437 437 435 434 433 431 428 423 419 419 419 419 420 421 421 423 426 431 436 442 447 450 453 455 458 459 458 456 453 450 448 446 444 442 441 442 443 442 441 439 437 435 434 436 438 439 439 439 439 439 440 442 446 450 452 455 460 463 464 466 469 471 473 474 474 473 473 474 475 476 475 474 473 471 469 468 468 468 469 471 473 475 478 480 479 479 479 478 476 472 469 466 464 464 464 464 464 464 468 471 473 476 477 478 476 475 474 473 473 476 477 477 477 478 478 478 477 476 473 471 469 468 468 468 468
349 351 352 351 350 349 347 347 347 347 347 347 347 347 347 347 347 347 347 347 347 347 347 347 347 347 347 348 349 350 352 355 358 359 360 360 361 362 364 366 367 368 369 368 367 367 367 367 367 368 367 367 368 370 372 376 379 381 384 386 388 391 393 394 395 397 397 397 397 397 397 396 394 393 392 391 391 390 389 387 386 384 384 382 381 379 377 379 383 388 391 392 395 397 398 399 400 402 404 405 405 405 405 403 401 400 400 401 402 404 406 407 407 408 408 408 408 409 411 413 416 420 424 427 429 430 431 430 429 427 424 421 419 419 420 421 421 422 425 427 429 432 434 436 436 437 437 438 439 439 438 437 437 437 438 437 436 435 434 434 433 431 429 428 427 424 422 420 418 415 411 408 405 403 403 405 410 414 416 417 419 421 421 422 423 425 426 427 428 429 429 428 427 426 425 424 422 419 417 416 414 413 414 413 413 413 415 415 416 416 414 412 412 412 414 415 415 415 416 416 415 415 416 417 419 420 421 423 424 425 427 430 432 434 435 436 435 434 433 432 432 433 435 435 435 434 434 433 432 432 430 430 430 428 426 424 422 420 418 417 415 413 411 410 408 407 404 401 398 397 396 395 395 395 395 395 395 396 399 402 406 409 412 413 416 418 418 419 420 421 422 424 424 424 424 424 424 425 425 426 426 426 425 424 423 423 423 424 423 421 419 418 417 414 412 410 408 408 405 403 401 401 399 398 397 397 396 395 395 397 399 402 404 405 407 409 409 410 409 408 408 407 407 406 405 403 401 398 396 394 394 394 394 394 394 394 394 394 395 397 398 399 400 401 401 401 399 396 396 396 396 396 396 396 396 396 396 397 400 404 406 408 410 412 412 413 414 415 416 417 417 416 416 417 416 414 412 410 407 404 403 403 404 405 405 404 403 403 403 403 403 403 404 404 404 403 403 403 404 405 406 406 407 407 407 407 406 406 405 405 405 405 405 405 405 405 405 406 407 407 407 407 408 408 409 411 413 416 419 422 424 424 426 428 430 431 432 433 434 434 434 434 436 436 435 436 437 438 438 438 439 439 438 436 434 433 431 428 424 421 419 419 421 423 423 424 425 428 431 436 441 447 452 455 457 459 460 458 455 453 451 449 448 447 446 445 445 445 445 444 441 438 436 435 437 440 441 441 441 440 440 441 442 446 448 451 454 458 461 463 465 468 469 470 471 472 472 472 472 474 475 475 476 476 474 472 470 469 470 473 475 476 478 480 482 482 482 482 481 479 475 472 469 467 465 464 464 466 468 471 473 476 477 478 478 478 476 475 474 474 476 478 478 478 480 480 480 479 477 475 471 469 468 467 467 466
351 353 353 353 352 351 349 348 347 347 347 347 347 347 347 347 347 347 347 347 347 347 347 347 347 347 347 347 349 350 351 353 356 357 357 357 358 359 361 363 364 366 367 367 367 368 368 368 368 367 367 367 368 369 372 375 378 381 384 386 387 389 391 393 393 394 395 395 395 396 396 395 392 390 389 388 388 388 388 386 385 383 382 381 379 376 375 377 381 386 390 391 393 395 397 399 400 402 403 403 403 403 402 400 399 398 398 399 400 401 403 405 406 406 406 406 405 406 409 413 418 422 426 428 431 433 433 432 431 429 428 426 424 423 423 423 423 425 427 429 430 432 434 435 436 437 437 439 440 440 440 440 439 439 438 438 438 436 435 435 434 432 430 429 426 423 421 419 416 413 411 407 405 404 404 406 410 414 417 419 421 422 422 423 424 426 427 428 429 429 429 429 428 427 425 424 422 419 416 413 413 413 416 417 416 417 418 418 419 419 417 415 414 414 415 417 417 417 418 418 417 416 416 417 419 421 422 423 425 427 429 431 432 434 435 435 434 433 431 430 430 431 433 434 433 432 432 433 432 432 430 429 429 428 426 425 422 421 419 417 416 413 410 409 408 406 403 401 399 398 397 396 395 395 395 395 395 396 399 402 405 410 413 414 415 418 419 419 420 421 422 424 426 426 426 425 426 426 426 427 427 427 426 425 424 425 425 426 425 423 421 418 416 414 412 410 407 406 404 402 400 399 398 398 397 397 396 396 396 398 400 403 405 406 408 410 412 412 411 410 409 409 409 408 408 406 404 402 398 396 396 394 394 394 394 394 394 394 394 395 397 398 399 398 398 398 398 396 396 396 396 396 396 396 396 397 396 396 398 401 404 407 409 410 410 411 411 412 413 414 414 415 416 417 416 415 415 414 410 406 404 403 403 404 404 403 403 403 403 403 403 403 404 404 404 404 404 405 405 406 406 406 407 406 405 405 405 405 405 405 405 405 405 405 405 405 405 405 406 406 406 407 408 408 409 410 412 415 420 423 425 426 427 428 429 431 432 434 435 435 435 436 438 438 437 438 439 440 440 440 441 440 439 437 435 434 432 429 425 423 421 421 423 425 426 426 427 429 432 436 441 448 453 456 457 459 460 459 456 454 452 451 449 448 448 447 447 447 447 446 444 441 438 437 438 442 444 444 444 443 443 442 443 445 448 451 454 457 460 462 464 466 466 467 469 470 471 471 472 473 475 477 478 478 476 474 473 473 475 477 479 479 481 482 484 485 485 485 485 482 479 476 473 471 469 469 469 470 472 474 476 479 480 481 481 480 479 477 476 476 478 479 479 480 482 482 482 481 479 476 473 470 469 468 467 466
352 354 355 355 354 352 351 350 348 347 347 347 347 347 347 347 347 347 347 347 347 347 347 347 347 347 347 347 348 348 349 351 353 354 355 355 355 356 357 359 361 364 366 368 369 370 369 368 368 367 367 367 368 369 372 374 377 379 382 385 386 388 390 391 391 391 392 393 395 396 396 394 391 389 387 386 386 385 385 383 382 380 380 378 376 374 374 375 379 385 389 391 391 393 395 398 400 401 402 402 402 401 400 398 397 397 397 397 398 399 401 403 403 404 403 403 403 405 409 414 419 424 427 429 432 433 433 433 431 430 429 427 426 423 423 424 426 428 430 431 431 432 433 434 436 437 438 439 440 440 441 441 440 440 439 439 438 436 435 434 433 432 430 429 426 423 421 419 416 413 411 408 406 405 404 407 411 414 417 420 421 423 423 424 425 426 428 429 429 429 429 429 429 428 426 425 423 420 416 413 413 415 418 420 420 419 420 421 422 422 420 418 416 417 418 419 419 419 420 420 420 419 418 418 419 421 423 424 426 429 430 431 432 434 434 434 432 431 429 427 427 428 430 430 430 429 430 431 431 430 430 429 428 427 426 425 423 421 420 419 417 414 410 408 408 406 403 401 399 399 399 398 396 395 395 395 395 397 399 402 405 410 413 414 416 418 419 420 422 422 424 425 427 427 427 427 427 427 428 429 429 428 427 426 426 426 427 427 426 424 422 419 417 415 412 408 406 405 403 400 398 397 397 397 397 397 397 397 398 399 402 404 406 408 411 412 413 413 413 412 411 411 411 411 410 408 406 404 400 397 396 394 394 394 394 394 394 394 394 394 396 397 397 396 397 397 397 396 396 396 396 397 397 397 397 397 396 396 396 398 402 406 409 409 409 409 409 410 410 411 412 414 415 416 416 415 415 414 412 408 405 404 403 403 403 403 403 403 403 404 404 403 403 403 403 404 404 404 405 405 405 405 405 405 405 405 405 405 405 405 405 405 405 405 405 405 405 405 405 405 406 407 408 409 409 410 412 415 420 424 427 428 429 430 430 431 432 434 436 437 438 439 440 440 440 440 442 443 443 443 443 442 441 439 437 435 433 430 426 424 422 422 423 426 426 426 428 430 433 436 442 448 454 457 458 461 462 462 459 456 455 453 452 451 450 450 449 449 449 449 447 445 441 439 440 444 446 447 447 446 445 444 444 444 446 449 453 456 458 461 463 463 464 465 467 468 469 470 472 474 477 479 480 481 480 478 478 479 481 482 482 483 484 485 486 487 487 487 487 485 482 480 477 475 472 471 471 473 475 476 478 480 481 482 483 482 480 478 477 477 479 480 480 481 483 483 483 482 480 478 475 473 470 469 467 466
353 354 356 356 356 355 354 353 351 348 347 347 347 347 347 347 347 347 347 347 347 347 347 347 347 347 347 347 347 347 348 350 352 353 353 354 354 354 356 358 360 363 366 368 369 370 369 369 368 369 369 369 369 371 373 375 377 378 381 383 386 387 389 390 389 389 390 392 394 395 394 392 390 389 387 384 382 380 380 379 378 376 376 374 373 373 374 376 380 386 390 391 390 391 393 396 398 400 401 400 400 398 397 396 396 396 396 396 397 398 399 400 401 401 401 402 403 407 412 416 421 425 428 430 433 434 434 434 433 431 429 427 426 423 422 424 427 429 431 432 432 432 433 434 435 437 438 440 440 441 441 441 440 438 438 438 437 436 435 434 433 431 430 428 426 423 421 418 416 414 413 411 408 406 406 408 411 415 419 421 422 424 424 426 427 427 428 429 429 429 429 430 430 429 427 425 423 420 417 415 416 418 421 422 422 421 422 423 424 424 422 420 418 419 420 421 421 421 421 421 421 421 420 419 420 422 424 426 427 430 431 431 432 433 433 432 431 429 427 426 425 425 426 426 426 427 427 428 428 428 427 427 427 426 425 425 424 422 420 419 417 413 410 408 407 405 402 400 399 399 399 398 396 395 395 395 395 398 400 402 406 410 413 414 416 418 420 422 424 424 425 426 427 428 427 427 428 429 429 430 430 429 428 428 428 427 427 427 427 425 422 420 417 415 411 407 404 403 402 399 397 397 397 397 397 397 397 397 398 401 404 406 408 410 413 414 415 415 415 414 413 414 413 412 411 409 407 404 401 398 397 395 394 394 394 394 394 394 394 394 394 395 394 394 395 395 395 396 396 397 398 398 397 397 397 397 396 396 396 397 401 405 408 408 407 407 408 408 408 409 412 414 415 415 414 413 413 413 412 409 407 405 404 403 403 403 403 404 405 406 406 404 403 403 405 405 404 404 404 404 405 405 405 405 405 405 405 405 405 405 405 405 405 405 405 405 405 405 405 405 405 406 408 409 411 412 414 416 420 424 428 429 430 431 431 432 433 435 437 438 439 440 441 441 442 443 444 445 444 445 445 444 443 441 439 437 435 432 427 425 423 423 424 426 426 427 429 431 434 437 442 448 454 457 460 462 464 464 462 459 457 456 454 453 453 452 452 452 451 450 449 448 445 442 442 445 447 448 448 448 447 445 445 445 446 448 451 454 457 460 461 462 463 465 467 467 469 471 474 475 477 479 482 483 483 483 483 484 484 486 487 487 488 488 487 488 488 487 488 487 484 482 480 477 474 473 474 476 478 478 479 480 481 482 483 482 481 479 478 478 479 480 481 482 484 484 484 483 481 479 478 476 473 471 469 467
353 355 357 359 359 358 357 354 353 350 347 347 347 347 347 347 347 347 347 347 347 347 347 347 347 347 347 347 348 348 349 350 351 351 351 352 353 353 355 358 361 363 365 367 368 370 371 371 371 372 373 373 372 372 373 375 377 379 382 384 386 387 388 389 389 389 390 391 392 393 392 391 389 387 385 383 379 376 375 374 372 371 371 371 372 373 375 378 383 388 390 390 390 391 392 394 395 397 398 397 396 395 394 394 395 395 395 395 395 396 396 397 399 400 402 402 405 410 415 419 422 426 428 431 433 435 436 436 434 432 428 426 424 421 420 422 426 429 431 432 433 433 433 434 435 436 438 439 439 439 439 439 437 436 436 436 436 435 434 433 432 430 428 427 426 424 421 418 417 417 416 414 411 409 408 409 412 416 419 421 423 426 426 427 428 428 429 430 430 430 431 431 430 429 427 425 422 419 417 417 418 419 421 422 423 423 425 426 426 424 422 421 420 420 422 423 423 423 422 422 422 421 421 421 421 423 425 426 428 430 431 432 433 433 432 431 430 428 427 425 424 423 423 423 423 424 423 423 424 424 424 424 424 424 424 423 422 421 419 417 415 412 408 406 404 402 401 399 399 399 399 398 396 395 395 395 396 399 401 403 406 410 413 414 416 418 421 423 425 425 425 426 427 428 428 428 429 430 431 430 431 431 430 430 430 428 427 427 426 425 423 420 416 413 410 407 403 403 402 400 398 397 397 397 398 398 397 397 398 402 405 407 409 412 414 416 417 417 417 417 416 416 415 413 412 410 409 406 402 400 399 397 394 394 394 394 394 394 394 394 394 394 394 394 394 394 394 395 396 397 397 397 397 397 397 397 397 397 396 396 398 402 404 404 404 404 405 405 405 407 411 413 414 413 412 411 410 410 409 408 406 405 404 402 402 402 403 405 406 408 408 406 405 406 407 406 405 405 405 405 405 405 405 405 405 405 405 405 405 405 405 405 405 405 405 405 405 405 405 405 405 405 407 410 413 415 416 418 421 425 429 430 431 431 432 433 434 435 437 439 440 441 441 442 444 444 445 446 446 446 446 445 444 443 441 439 436 433 429 426 425 425 427 428 428 428 430 432 435 438 442 447 452 457 461 463 465 465 464 461 459 457 456 455 455 455 456 456 455 454 452 450 447 445 444 445 447 448 448 448 448 446 446 447 448 450 453 454 456 459 460 461 462 465 467 468 470 473 474 476 478 480 482 484 485 486 486 486 488 489 490 490 491 490 489 489 488 488 489 488 485 482 480 479 477 476 477 480 481 480 481 482 482 483 484 483 482 481 480 480 480 481 482 483 484 484 485 484 482 480 480 478 476 473 471 469
353 356 359 361 361 360 359 356 354 351 348 347 347 347 347 347 347 347 347 347 347 347 347 347 347 347 347 347 349 350 350 351 351 350 350 350 351 353 355 358 360 362 364 366 368 370 372 373 373 375 376 375 374 373 374 376 379 382 384 386 387 386 386 387 388 389 389 390 390 391 391 390 388 386 384 382 378 374 371 370 370 370 370 370 371 374 377 380 384 388 390 391 391 392 393 393 394 394 394 394 393 393 393 394 395 396 396 395 395 395 395 396 398 400 402 403 407 412 417 420 423 426 428 430 433 435 437 437 435 432 428 425 421 418 418 420 424 427 428 430 433 434 434 434 435 436 438 439 438 438 437 436 435 435 435 436 435 434 433 432 431 429 428 427 426 424 421 419 418 418 418 417 415 412 411 411 415 418 419 422 425 427 428 428 428 429 430 431 431 432 432 431 430 429 428 426 423 420 417 417 417 418 420 421 422 425 427 428 428 426 425 422 421 421 423 425 425 425 424 424 424 423 422 422 423 424 425 427 429 430 431 432 434 434 433 433 431 429 427 426 424 423 422 422 422 421 420 421 421 421 421 421 422 422 421 420 419 418 416 414 411 409 407 405 403 401 400 399 399 399 399 398 395 395 395 395 396 399 401 404 407 411 413 414 416 418 420 422 424 425 425 426 428 428 429 429 430 431 432 431 432 432 431 431 431 429 427 427 426 424 423 420 416 412 409 405 403 402 402 401 398 397 397 397 398 399 399 398 400 403 406 408 410 413 416 417 418 417 418 418 417 416 415 415 414 412 411 408 405 402 401 399 395 394 394 394 394 394 394 394 394 394 394 394 394 394 395 396 396 397 397 397 397 397 398 398 398 398 396 396 396 397 399 400 400 401 402 402 403 406 410 412 412 411 410 409 407 406 405 405 404 403 402 402 402 402 403 405 407 408 409 408 408 408 409 408 407 407 406 406 406 406 405 405 405 405 405 405 405 405 405 405 405 405 405 405 405 405 405 405 405 405 407 410 414 416 418 420 424 428 430 431 432 432 433 434 434 435 437 438 439 440 442 444 446 446 447 447 448 448 447 446 444 443 442 440 437 434 431 429 428 428 430 430 430 430 431 434 436 439 443 448 453 459 462 464 466 466 465 462 460 458 457 457 456 456 457 458 457 456 455 453 451 448 447 447 447 448 448 448 448 448 448 450 452 454 455 456 457 459 460 461 462 464 466 468 471 474 476 477 479 481 483 484 486 487 487 489 490 491 492 492 492 492 490 489 489 490 490 489 486 482 480 479 478 479 481 483 483 483 484 485 486 487 486 484 483 483 482 481 481 481 483 484 485 485 485 484 483 482 481 480 477 475 473 471
355 359 361 364 364 363 361 358 355 353 351 348 347 348 348 348 348 347 347 347 347 347 347 347 347 347 347 348 350 350 350 351 351 350 349 349 351 354 356 358 360 363 366 368 370 372 373 375 375 376 377 377 376 376 377 377 379 382 384 384 384 383 382 383 386 388 390 390 389 388 388 388 386 384 382 379 376 372 370 370 370 370 370 370 372 375 379 382 385 389 391 392 394 395 395 394 393 393 392 391 391 392 393 395 397 397 397 396 395 395 395 396 398 401 404 405 409 414 419 422 424 427 429 430 432 434 436 436 434 431 429 425 421 417 417 419 423 425 427 429 432 434 434 435 436 437 439 438 437 436 435 434 433 433 434 435 434 433 433 431 430 429 428 427 426 423 421 420 419 419 419 419 417 415 413 414 416 419 420 423 426 428 429 429 429 430 432 432 432 433 433 432 430 429 429 428 425 421 418 417 416 416 417 419 421 424 426 427 427 427 426 424 422 422 424 426 426 426 426 426 426 426 425 424 425 425 426 428 429 430 431 433 435 436 435 434 432 430 429 427 426 424 423 422 421 420 418 418 419 419 418 418 418 419 418 417 415 414 412 411 409 408 406 405 402 401 400 399 399 399 398 397 395 395 395 396 398 400 402 404 406 410 412 413 416 417 419 421 423 424 425 427 427 429 429 430 431 432 432 432 433 434 433 432 431 430 428 427 425 425 423 421 417 413 409 406 403 403 401 400 398 397 397 397 397 399 400 400 402 405 408 410 413 415 417 418 418 418 419 419 419 418 417 417 416 414 412 409 406 404 402 399 396 394 394 394 394 394 394 394 394 394 394 394 394 394 395 396 397 397 397 397 397 397 398 398 399 399 397 396 396 396 396 397 398 399 399 401 402 406 408 410 410 409 408 406 404 402 402 403 403 402 402 402 403 404 405 406 407 409 410 411 410 409 410 411 410 410 409 408 408 407 406 405 405 405 405 405 405 405 405 405 406 405 405 405 405 405 405 405 405 405 407 411 415 419 421 423 426 428 430 430 431 432 433 434 434 435 436 437 438 440 443 445 446 447 448 449 449 448 449 448 446 445 444 441 438 436 434 433 432 432 433 432 432 432 433 435 438 441 445 450 456 461 464 466 467 466 465 463 461 459 459 459 459 458 459 459 458 457 456 456 454 452 449 448 448 448 448 449 450 450 451 453 456 458 458 458 459 461 462 463 464 464 466 469 472 475 477 479 481 482 484 485 486 487 489 490 491 492 492 492 492 492 491 490 491 491 490 489 486 484 481 480 479 481 484 486 487 487 488 488 489 489 487 485 484 484 483 481 481 482 484 484 485 485 485 484 483 483 483 481 478 475 474 471
358 361 364 366 367 366 364 361 358 356 355 353 353 352 352 352 351 350 349 347 347 347 347 347 347 347 347 350 351 350 350 350 351 350 349 349 351 354 356 357 360 365 369 371 372 374 375 376 377 377 378 378 378 379 380 379 380 381 380 380 380 378 378 380 383 387 389 389 388 385 384 384 383 381 378 376 373 370 370 370 370 370 370 370 373 377 381 384 388 390 392 394 396 397 397 396 394 392 390 388 389 392 394 396 398 398 397 396 395 395 396 397 400 403 406 407 411 415 420 424 426 429 431 431 432 433 435 435 433 431 428 424 420 417 417 418 420 423 426 429 432 434 435 436 437 439 440 439 436 435 434 434 433 433 434 434 433 432 431 429 429 428 428 427 425 423 422 422 422 422 422 420 418 416 415 416 418 420 422 425 427 429 429 430 431 432 433 433 433 434 434 432 430 429 429 429 427 424 420 418 416 416 416 416 418 420 423 424 425 426 426 425 423 424 425 427 427 427 426 426 426 427 427 427 426 426 427 429 430 432 433 435 436 437 436 435 433 432 431 429 427 426 425 423 422 420 419 418 418 418 417 416 416 416 415 414 412 411 410 409 408 407 406 404 403 402 401 401 400 399 398 396 396 396 397 399 401 402 403 405 406 408 411 412 415 416 418 420 422 424 426 427 427 428 430 431 432 432 433 434 435 435 434 432 431 430 429 427 425 424 423 421 418 414 409 406 404 404 401 399 397 397 397 397 398 400 402 403 405 408 411 414 416 417 418 419 420 420 421 422 421 421 420 419 417 415 412 410 407 404 403 401 398 396 396 396 395 395 394 394 394 394 394 394 394 395 396 397 399 400 401 400 398 397 397 397 398 399 399 397 396 396 396 397 397 398 399 400 402 404 406 407 408 408 406 404 402 400 400 401 401 400 401 402 404 405 406 407 408 410 411 411 411 411 412 413 412 412 411 410 409 408 407 406 405 405 405 405 405 405 405 405 406 406 405 405 405 405 405 405 405 406 409 412 417 421 423 425 427 428 428 428 429 431 434 435 435 436 438 439 439 440 442 445 446 447 448 449 449 449 450 450 449 448 446 442 440 439 438 436 436 435 435 434 434 435 436 438 441 444 448 454 459 463 466 467 467 466 465 463 462 461 462 462 462 462 462 461 459 458 458 458 456 454 452 451 450 450 451 452 453 453 454 455 458 459 459 460 461 462 464 464 464 465 467 469 471 474 477 479 480 481 483 484 485 487 489 490 491 491 491 491 491 492 491 491 491 491 489 487 485 483 482 480 479 481 484 487 489 491 491 491 491 491 488 485 484 484 484 482 482 484 485 485 486 486 485 484 484 484 483 481 479 476 474 473
361 363 366 368 368 367 366 365 363 361 360 358 356 355 354 354 353 351 350 348 347 347 347 347 347 347 349 351 351 351 351 351 351 349 349 349 351 353 355 356 360 366 370 372 374 376 378 379 379 380 381 381 382 382 382 381 381 380 377 375 375 375 375 377 380 384 386 387 386 383 382 382 380 377 375 372 370 370 370 370 370 370 370 371 374 379 382 385 389 392 394 396 398 398 397 396 394 391 388 386 387 391 394 396 397 397 396 396 395 396 398 399 401 405 409 410 413 417 421 425 428 430 432 432 433 433 434 434 432 429 426 422 418 415 414 416 419 421 424 428 431 432 434 436 438 439 440 439 437 436 434 433 432 431 432 432 431 430 428 427 427 426 427 426 424 423 424 424 425 425 424 423 421 419 418 418 420 422 424 426 427 429 429 431 432 433 433 434 435 435 434 432 430 430 430 429 428 426 423 420 418 416 415 415 416 418 420 421 423 425 425 425 424 426 427 428 428 428 427 427 427 427 428 428 428 428 429 431 433 434 436 437 437 436 436 435 433 432 431 429 428 428 427 425 425 424 422 420 419 419 418 416 415 414 413 412 411 409 408 408 407 406 405 404 404 404 404 403 401 399 398 398 398 399 401 404 405 405 405 405 406 408 410 411 413 414 416 419 421 423 425 426 427 428 430 431 432 433 434 435 436 436 435 433 432 431 429 427 425 424 422 420 418 414 410 407 405 405 403 399 397 397 397 397 399 402 404 405 408 411 414 416 418 419 420 420 421 423 424 424 424 423 422 420 417 415 413 410 407 405 404 402 400 399 398 396 395 395 395 395 396 395 395 395 396 398 399 401 402 404 405 404 401 399 398 397 398 399 398 397 396 397 397 397 397 398 399 400 401 403 404 404 405 406 405 404 402 400 399 399 399 399 399 402 405 406 407 407 409 410 411 411 411 412 413 414 413 413 412 411 410 409 407 406 406 405 405 405 405 405 405 405 406 406 405 405 405 405 405 405 405 407 410 415 419 422 423 425 426 427 427 428 429 431 434 435 436 437 439 439 440 441 442 444 446 448 448 449 450 451 451 451 450 449 447 444 443 443 442 440 439 438 437 437 437 438 440 442 444 448 451 455 460 463 466 467 468 467 465 464 463 463 464 464 465 465 464 463 462 461 460 459 458 456 455 454 454 454 454 456 456 457 457 458 459 460 461 462 463 464 465 466 466 466 468 470 471 474 476 478 480 481 482 484 486 488 490 490 491 492 491 491 491 492 492 492 491 489 487 485 483 481 480 479 479 479 483 486 490 493 494 493 493 492 489 486 485 484 484 484 484 485 486 486 487 487 486 485 485 484 482 481 479 478 476 475
362 364 367 369 370 369 368 368 366 365 365 363 361 358 357 357 356 353 351 348 347 347 347 347 347 347 349 351 351 351 351 351 351 349 349 349 350 351 353 355 359 365 370 373 375 377 379 380 381 382 384 385 385 385 384 383 382 380 376 372 371 371 372 374 378 381 383 384 383 381 380 379 376 374 373 370 370 370 370 370 370 371 371 374 377 381 385 387 391 394 396 398 399 399 397 395 392 389 386 384 386 391 394 395 395 394 395 396 396 398 400 401 403 407 411 412 416 419 422 426 429 431 433 434 434 434 434 432 430 428 424 420 415 412 412 415 418 421 422 426 428 431 433 435 438 439 439 438 437 436 434 431 430 429 429 429 429 428 426 425 425 425 425 425 424 424 426 427 427 426 426 425 423 422 421 420 420 422 424 426 427 429 429 430 431 432 433 434 435 436 434 432 431 431 431 429 428 427 425 422 418 416 415 414 414 416 418 420 421 424 425 425 426 428 430 431 431 430 429 428 428 428 429 429 430 431 433 435 436 437 437 437 436 434 434 433 431 431 430 429 428 428 428 427 427 426 423 421 419 419 418 416 415 413 412 411 410 409 408 408 408 406 406 405 405 405 405 404 402 401 400 401 403 405 408 409 409 407 406 405 406 407 410 411 412 413 415 417 419 422 423 424 426 428 429 430 431 433 435 436 436 436 435 434 433 431 430 429 427 425 422 420 418 415 411 408 406 406 404 400 398 397 397 398 401 404 406 408 410 413 415 417 419 420 422 423 423 424 425 425 425 424 422 419 417 416 414 411 408 406 405 403 401 399 398 396 396 396 397 398 399 399 399 398 399 400 402 404 405 407 408 407 405 402 401 399 398 399 398 396 396 397 397 397 397 397 398 399 401 402 402 402 403 404 404 404 404 402 400 399 399 399 399 402 405 406 407 408 409 410 411 412 413 413 414 415 414 414 412 411 410 409 408 406 406 406 406 405 405 405 405 405 406 406 405 405 405 405 405 405 405 407 411 415 419 421 422 425 427 427 428 428 430 432 434 435 436 437 438 438 440 441 442 444 447 449 449 449 450 451 451 451 451 450 448 446 445 445 445 444 443 441 439 439 439 441 443 444 446 449 452 455 459 462 465 467 468 468 466 464 463 463 464 465 465 466 466 466 465 464 462 461 460 459 458 457 457 457 458 458 458 458 459 459 460 462 464 464 464 465 467 468 469 469 470 471 472 474 476 478 480 482 483 485 487 489 490 491 492 492 492 492 492 493 493 492 490 488 485 482 480 479 479 479 479 480 482 487 492 496 496 495 495 493 491 488 486 485 485 485 485 485 485 486 486 486 486 486 486 485 483 482 481 479 477 476
363 365 367 370 371 371 370 371 371 369 369 368 365 362 361 361 359 357 353 350 348 347 347 347 347 347 349 350 351 351 351 351 350 349 348 348 348 349 352 355 359 364 369 372 374 377 379 381 381 383 385 387 387 386 385 384 382 380 376 372 370 370 371 373 377 379 380 381 380 379 378 376 374 372 371 370 370 370 370 370 371 373 374 376 380 384 388 390 392 395 397 399 400 399 397 395 392 388 385 384 385 390 393 393 392 392 393 396 397 399 401 402 404 408 412 414 417 421 424 427 430 432 434 435 435 434 433 431 429 427 422 417 413 410 409 412 416 419 421 424 427 430 432 434 437 438 438 436 435 435 433 430 428 427 426 427 428 427 426 424 424 424 425 425 425 425 427 428 428 429 428 427 425 424 422 421 420 421 423 426 427 428 428 429 431 433 433 434 436 436 435 432 431 430 430 429 427 426 425 422 418 415 414 413 413 415 416 417 419 423 426 427 428 430 432 432 432 432 432 431 430 431 431 432 432 433 435 438 438 437 436 435 433 432 432 431 430 430 429 428 427 428 428 428 428 426 424 422 420 420 418 417 416 414 413 411 411 410 409 409 409 408 408 408 407 407 407 406 405 405 405 406 408 410 412 412 412 411 409 407 406 408 410 411 413 414 415 417 419 422 423 424 426 429 430 430 431 433 435 436 436 436 435 435 434 432 431 430 429 426 424 422 420 418 414 410 407 406 404 401 399 399 399 400 403 406 408 411 413 415 417 419 420 422 424 425 425 425 425 426 426 424 422 420 418 417 415 413 409 407 406 404 402 400 398 397 397 398 399 399 401 402 402 403 403 403 405 406 408 409 410 410 408 406 404 402 401 400 398 397 396 397 398 398 398 398 398 399 399 400 400 400 400 402 403 403 404 403 401 399 399 399 399 403 405 407 408 409 410 411 412 413 414 414 415 415 414 414 412 412 411 409 407 407 407 408 407 406 405 405 405 405 405 406 406 405 405 405 405 405 405 407 411 414 416 419 421 424 427 428 430 430 432 433 434 435 436 436 437 438 440 442 443 445 447 449 449 449 450 450 451 452 452 451 449 447 446 446 447 447 445 443 442 441 441 441 443 444 445 448 451 454 458 462 464 466 467 467 466 464 463 463 464 465 465 466 467 468 467 466 464 464 463 462 461 459 459 460 460 459 458 459 460 461 462 464 466 467 466 466 468 470 471 471 472 473 474 475 477 478 480 482 484 486 487 489 490 491 493 494 494 494 494 494 494 492 490 487 485 482 479 479 479 479 479 480 483 486 493 497 498 497 496 495 494 492 489 487 487 486 486 485 485 485 485 485 486 487 487 486 485 483 481 479 477 477
363 366 368 370 372 373 373 374 374 373 372 371 369 367 365 365 363 360 357 354 350 347 347 347 347 347 347 349 349 350 351 350 349 348 348 348 348 349 351 354 358 363 367 370 374 377 379 380 381 382 384 386 387 387 386 384 382 380 377 373 370 369 370 373 376 378 379 378 377 376 375 374 372 371 370 370 370 370 370 370 371 374 375 378 383 387 390 390 392 395 398 400 400 399 397 395 391 387 384 384 385 388 390 390 389 389 392 395 397 398 400 402 405 409 413 414 418 422 425 428 431 433 435 436 436 435 433 431 430 428 423 417 413 409 409 410 413 417 419 423 427 429 431 433 436 437 437 436 434 434 432 430 427 425 424 425 425 424 424 423 423 424 425 425 426 427 429 430 430 430 430 429 427 424 423 422 421 422 423 425 427 428 428 429 431 432 433 434 435 435 433 432 431 430 430 429 427 425 424 420 416 414 413 413 413 413 414 415 418 422 425 427 428 430 431 432 432 433 433 433 433 434 435 435 434 434 434 436 436 436 434 432 431 429 429 428 427 427 426 426 426 427 428 428 428 427 425 423 422 421 420 418 416 415 413 411 410 410 409 410 410 411 412 412 412 411 410 409 409 411 411 411 412 414 414 414 414 413 411 409 408 410 412 412 414 416 417 418 420 422 424 424 426 429 430 430 431 432 434 435 436 436 435 435 435 434 432 430 429 427 425 424 422 419 415 411 408 407 404 402 401 400 401 403 406 408 411 414 416 417 419 421 422 424 426 426 426 426 427 427 426 425 423 421 420 418 416 414 410 408 407 405 403 401 399 399 398 399 399 401 403 404 405 406 406 407 408 410 411 412 412 411 409 409 407 406 404 402 399 398 398 398 399 400 400 399 399 398 398 398 398 398 398 398 399 400 402 402 400 399 399 399 400 403 406 408 408 409 410 411 412 413 413 414 414 415 414 414 413 412 411 410 408 408 408 408 408 407 405 405 405 405 405 406 406 405 405 405 405 405 406 408 410 412 415 418 420 423 427 429 431 432 433 434 435 435 436 436 437 439 441 442 443 445 447 448 449 450 451 451 452 453 453 452 451 449 448 447 447 448 447 446 444 443 443 442 442 443 445 447 449 452 456 460 463 465 465 465 464 463 463 463 463 464 465 467 468 469 469 468 466 465 465 464 464 462 462 462 462 461 459 459 460 462 464 466 468 469 470 469 470 472 473 473 474 475 476 477 478 480 481 482 485 486 487 489 490 492 494 494 495 495 495 495 493 492 491 488 486 484 481 479 480 480 480 482 484 486 491 496 498 498 497 497 497 496 492 489 487 487 486 486 486 485 485 485 486 487 487 486 485 484 482 480 478 477
365 368 369 371 373 374 374 375 376 375 373 372 371 371 370 369 367 364 361 358 353 348 347 347 347 347 347 347 348 350 350 349 348 348 348 348 348 349 350 353 358 363 368 371 374 378 380 381 381 382 384 386 387 387 386 384 382 379 376 373 370 369 370 372 374 376 378 378 376 375 374 373 372 370 370 370 370 370 370 370 370 373 375 378 383 388 391 392 393 396 399 400 399 398 396 394 390 387 384 384 385 387 388 386 386 387 390 394 395 397 399 402 405 410 413 414 417 421 425 428 431 434 436 436 436 435 434 432 431 429 426 421 415 411 409 409 411 415 418 422 426 428 429 432 434 436 436 435 434 434 432 430 427 424 422 422 421 420 420 421 422 424 425 426 428 429 431 432 432 431 431 430 427 425 424 423 423 423 424 426 427 428 428 428 429 431 432 433 433 432 432 431 431 431 431 430 427 424 423 419 416 414 413 412 412 413 413 415 418 420 423 425 427 429 431 431 431 432 433 434 434 436 436 435 434 433 433 434 433 433 432 430 429 427 426 425 425 424 424 425 426 428 428 429 429 429 427 425 424 423 422 418 416 414 412 410 410 409 410 412 414 416 417 417 416 414 414 412 412 414 415 415 415 416 416 416 415 413 411 410 410 411 412 413 415 418 419 420 421 423 424 426 427 429 430 430 431 433 434 435 436 436 436 436 435 434 432 430 429 428 427 424 421 418 415 411 408 407 405 403 403 403 404 406 409 411 414 416 418 418 419 421 423 426 427 426 426 427 429 429 427 425 424 423 421 419 416 413 410 408 408 406 404 401 400 400 400 399 400 401 403 405 406 407 408 409 410 412 413 413 413 412 411 410 410 409 407 405 402 400 400 400 400 400 400 399 399 398 398 398 398 398 398 398 398 398 400 401 400 399 399 399 400 402 405 407 408 410 410 411 413 414 414 414 415 416 415 415 415 414 413 411 410 409 408 408 408 407 406 405 405 405 405 405 405 406 407 407 407 407 407 408 409 410 413 416 419 422 426 429 431 432 433 434 434 435 435 436 437 439 441 442 443 444 447 448 449 450 452 453 453 454 454 453 452 451 450 448 447 448 448 447 446 445 444 443 442 443 445 447 448 451 455 460 463 465 466 465 464 463 463 463 463 464 465 466 468 468 469 469 468 468 467 467 466 465 464 465 465 463 461 460 461 463 465 468 471 472 473 473 473 474 475 476 476 476 477 478 480 481 482 484 487 488 489 490 492 493 494 494 495 495 495 494 493 492 492 490 488 485 483 482 481 481 482 483 484 486 490 494 497 498 498 498 498 496 492 488 486 486 486 486 487 487 486 486 487 486 485 485 485 484 482 480 479 478
368 370 371 373 375 376 376 376 376 375 373 372 372 372 372 371 370 368 366 362 356 350 347 347 347 347 347 347 348 349 349 348 348 348 348 348 348 348 350 353 358 364 370 372 375 378 380 381 381 383 384 386 386 385 384 383 381 378 375 372 369 369 370 371 372 373 375 377 376 374 373 372 371 370 370 371 372 372 370 370 370 373 375 379 383 388 391 393 395 398 399 399 397 396 395 392 389 386 385 384 384 385 385 384 384 387 390 393 394 396 399 403 405 409 413 414 417 421 426 428 431 434 435 436 436 435 434 433 431 430 428 423 417 413 411 409 411 414 418 422 425 427 428 430 432 433 434 434 433 433 432 429 426 422 420 418 418 418 418 420 421 423 425 427 428 430 431 432 432 431 431 430 428 427 426 426 425 425 426 428 429 428 428 428 428 429 431 431 431 431 431 431 432 431 431 429 427 424 422 419 417 415 413 412 412 412 412 414 416 419 421 423 425 428 430 431 432 432 433 435 436 436 436 435 433 432 432 431 430 431 430 428 426 425 424 424 423 423 423 424 426 428 429 430 430 430 429 427 425 424 422 418 416 414 412 411 411 411 413 416 418 419 420 419 418 416 416 415 414 415 417 417 417 417 417 417 416 413 412 412 412 412 413 414 416 420 421 422 423 425 426 428 429 430 430 431 432 434 435 436 436 436 436 437 436 435 432 430 429 429 427 424 421 418 415 411 408 407 405 403 404 406 407 409 411 414 416 418 419 419 420 422 424 427 427 427 427 429 430 430 429 427 426 425 422 419 416 413 411 409 409 407 404 402 401 401 400 399 400 401 403 406 408 409 409 410 411 412 414 415 414 414 413 412 411 410 409 408 406 404 404 402 400 399 398 398 398 398 398 398 398 398 398 398 398 398 399 400 399 399 399 399 399 399 402 405 408 410 411 412 414 414 415 416 416 417 417 417 416 415 414 413 411 409 408 408 407 406 405 405 405 405 405 405 405 406 408 409 410 409 409 409 409 410 412 415 418 422 426 429 431 432 432 433 434 434 435 436 437 438 439 440 442 444 446 448 450 451 452 453 454 454 454 453 452 451 450 449 448 448 448 448 447 445 445 444 443 444 446 448 450 452 456 461 463 464 465 466 466 465 464 464 465 466 467 467 467 468 469 469 470 470 470 469 468 467 467 466 466 465 462 460 460 461 464 468 472 474 475 475 476 477 478 478 478 478 478 480 481 483 484 485 488 489 490 492 493 494 495 495 495 495 495 495 493 493 493 491 488 486 484 482 482 482 482 482 483 485 488 491 494 497 497 497 496 494 491 488 486 486 486 487 488 489 488 488 487 486 485 485 485 483 482 481 479 477
369 371 373 374 376 378 379 378 377 376 375 374 373 373 372 371 371 370 368 365 359 354 349 347 347 347 347 347 348 348 348 348 348 348 348 348 348 348 350 354 360 367 372 375 376 378 380 381 381 382 383 384 384 383 383 382 380 378 375 371 369 369 369 368 368 368 371 372 372 371 371 370 370 370 371 373 375 375 374 373 374 376 378 382 386 389 392 394 396 398 399 398 396 394 393 390 388 386 384 383 383 383 382 382 383 386 389 392 394 396 400 403 406 410 413 415 419 423 427 430 432 434 434 435 435 435 434 432 430 428 426 422 417 414 411 409 410 414 418 421 424 425 427 430 432 433 434 433 432 432 431 428 424 420 418 416 416 416 418 419 421 423 426 428 428 429 430 431 431 431 430 430 429 428 427 427 426 425 427 429 430 429 429 428 428 429 430 430 430 430 430 430 430 430 429 428 426 424 422 420 419 417 415 414 413 412 412 412 413 415 417 420 422 425 428 430 431 432 434 436 436 436 436 434 432 430 429 428 427 427 426 423 422 421 421 421 422 422 423 424 425 428 430 431 432 432 430 428 426 425 422 419 417 415 413 413 414 415 417 419 420 420 419 418 417 416 416 416 416 417 417 417 417 417 417 417 416 415 414 415 415 416 416 416 419 421 423 424 425 427 428 430 431 431 431 432 433 434 436 436 436 436 436 437 436 434 431 430 430 429 427 423 420 418 414 410 407 406 404 404 405 407 409 411 412 414 416 418 419 420 422 425 427 428 429 429 429 430 431 432 430 429 427 426 423 420 417 414 413 411 410 407 404 402 402 403 402 401 401 402 404 407 410 411 411 412 413 414 415 416 416 415 415 414 413 413 412 411 409 408 407 404 400 399 398 398 398 398 398 399 398 398 398 398 399 399 399 399 399 399 399 399 399 399 400 404 407 410 411 413 414 415 416 417 418 418 417 417 417 416 415 414 412 410 409 408 407 405 405 405 405 405 405 405 405 407 408 410 411 410 410 410 410 410 412 415 418 422 426 429 432 432 433 434 434 435 435 435 436 438 438 440 442 444 446 448 449 450 451 452 453 454 454 453 452 451 450 450 449 448 448 448 447 446 446 446 446 447 448 451 453 456 459 462 463 464 465 467 468 468 466 466 467 468 468 468 468 469 470 471 472 472 471 471 471 471 469 468 467 465 462 460 460 461 464 469 473 475 475 476 478 478 478 479 480 480 480 482 483 484 485 487 489 489 491 492 492 493 494 495 495 495 495 495 493 492 492 491 489 488 485 483 482 482 482 481 482 484 485 487 490 492 493 493 493 492 490 488 488 488 487 487 488 489 489 489 487 487 486 485 484 482 481 480 479 477
369 371 374 376 378 380 380 380 379 379 378 377 376 374 373 372 371 370 369 367 363 358 354 350 347 347 347 348 348 348 348 348 348 348 348 348 348 348 349 355 361 367 372 375 377 378 379 379 379 381 381 382 381 381 380 380 378 376 374 371 369 368 367 365 364 364 365 365 366 367 367 368 370 371 372 373 375 376 377 378 378 381 382 386 389 391 393 395 397 398 398 397 395 393 392 389 387 386 383 381 381 382 381 381 383 385 388 391 394 397 401 405 408 411 414 415 419 423 426 430 432 433 433 433 434 434 432 429 427 426 424 422 418 413 409 408 409 414 419 421 423 424 427 430 432 433 433 432 431 431 430 427 423 419 416 415 415 415 417 419 421 423 426 427 427 427 428 429 430 430 430 429 428 427 426 425 424 425 427 429 430 430 430 430 430 430 430 430 430 430 429 429 428 427 427 426 425 424 423 423 422 420 418 416 413 411 410 410 410 412 415 418 420 423 425 428 428 430 433 435 435 435 434 431 429 427 426 425 424 423 421 420 419 418 418 418 419 421 422 424 427 429 431 432 433 433 430 429 427 426 424 421 419 417 415 415 417 418 420 421 421 420 419 418 418 418 418 418 418 419 418 417 417 417 417 417 417 417 416 417 418 419 419 419 421 422 423 424 426 428 429 431 432 432 433 434 434 435 436 437 437 437 436 436 435 434 432 430 429 429 427 423 419 416 413 409 407 406 404 404 405 407 409 412 414 416 418 419 421 422 424 427 428 430 431 431 431 431 432 432 431 430 428 426 424 421 418 415 413 411 411 407 404 403 404 404 403 403 402 403 406 408 411 412 413 414 415 416 417 417 417 416 416 416 416 415 415 413 411 410 409 405 402 400 399 398 398 398 398 399 399 398 398 399 399 400 400 399 399 399 399 399 399 399 400 403 406 409 411 412 414 415 417 418 418 418 418 418 417 416 415 414 413 411 410 408 406 405 405 405 405 406 407 407 408 408 408 409 410 410 411 410 410 411 412 416 419 422 425 429 431 432 433 435 436 436 436 436 437 439 439 441 443 444 445 446 448 449 450 451 453 453 453 453 452 451 450 450 450 449 449 448 448 449 449 449 449 451 452 454 455 458 460 463 464 465 467 469 470 470 469 468 468 469 469 469 470 471 472 473 474 474 474 474 475 475 473 471 470 467 463 460 460 463 467 471 474 476 477 478 479 479 478 479 481 482 482 483 484 485 486 488 489 489 490 491 491 492 493 494 495 495 495 495 493 492 491 490 489 489 486 484 482 483 482 480 481 482 482 484 486 487 488 489 490 489 488 488 489 488 487 488 489 490 490 489 488 487 486 485 483 481 481 480 479 477
369 371 374 377 379 380 381 380 380 381 380 379 377 376 374 374 372 370 369 368 367 364 360 354 349 347 348 348 348 348 348 348 348 348 348 348 348 348 348 353 358 364 368 372 376 378 379 378 378 378 379 379 379 379 378 377 377 375 374 371 369 367 365 363 361 361 361 361 362 365 366 368 371 373 374 373 375 377 379 380 382 384 385 388 390 392 394 395 396 396 396 395 394 393 391 388 387 385 382 380 379 380 380 380 382 385 387 391 395 399 404 407 410 412 414 415 418 422 426 429 431 431 431 431 432 431 430 429 427 425 424 422 418 413 408 405 407 412 417 421 422 424 426 429 432 433 432 431 431 431 429 427 423 419 416 414 413 414 416 420 422 424 425 426 426 426 426 427 428 428 428 427 426 425 424 423 422 423 426 429 430 430 430 431 431 430 430 430 429 428 427 427 427 426 425 425 424 424 424 424 423 421 419 416 413 410 409 408 409 411 414 416 419 421 423 425 426 429 432 434 433 433 431 428 426 424 423 422 421 419 418 418 418 418 417 417 419 421 423 426 429 430 431 433 434 434 431 430 428 428 426 424 422 420 418 419 419 420 421 422 422 421 420 420 420 420 421 421 421 420 419 418 417 417 417 417 418 419 419 419 419 420 420 420 421 422 423 425 428 430 431 432 433 433 435 435 435 436 437 437 437 437 437 437 436 435 433 431 429 428 426 422 419 415 412 408 406 406 404 404 406 407 410 414 417 419 420 422 423 425 427 429 430 432 433 433 433 433 433 433 432 431 429 426 423 420 417 415 413 412 411 408 405 405 405 405 404 404 404 406 408 411 413 414 415 416 417 418 419 418 418 417 417 418 417 416 415 414 413 411 410 407 405 403 403 401 398 398 398 398 399 398 398 398 400 402 402 400 400 400 400 400 399 399 401 404 408 410 412 413 415 416 416 416 417 418 418 418 417 416 415 414 413 412 410 408 405 405 405 406 407 407 407 408 408 408 408 408 409 410 411 410 410 410 412 416 420 422 425 428 430 431 432 434 436 437 437 438 439 439 440 441 443 444 444 446 447 448 449 452 453 453 453 453 453 452 452 452 451 451 451 450 451 452 452 453 453 454 455 456 457 459 462 464 466 468 469 470 472 472 471 469 468 469 470 471 472 472 473 475 476 477 478 479 479 478 476 474 473 469 465 462 461 465 469 473 475 476 477 478 479 479 479 481 482 482 483 484 485 486 488 489 489 490 491 491 492 493 494 494 495 495 496 495 493 492 492 491 490 489 487 484 483 484 482 480 479 479 480 481 483 484 485 486 487 486 487 488 489 488 488 489 490 490 489 489 488 487 486 484 483 481 480 479 478 476
369 371 373 376 378 380 381 382 382 382 382 380 378 377 376 376 374 372 370 369 369 367 363 357 352 350 349 349 349 348 348 348 348 348 348 348 348 348 348 350 354 358 363 368 373 377 378 377 377 376 376 377 377 377 376 375 376 375 373 370 367 364 362 361 360 359 359 359 361 363 367 369 372 374 374 373 374 376 378 380 383 385 386 388 390 392 393 394 394 394 394 394 393 391 389 387 386 384 381 378 377 378 378 378 380 383 386 390 395 400 405 409 411 413 414 415 417 421 425 428 430 431 431 430 430 430 430 430 428 426 423 420 417 412 408 405 405 410 416 420 422 423 425 428 430 431 431 430 429 429 427 425 421 418 415 413 413 413 416 420 423 424 424 424 425 425 425 426 427 427 426 425 424 423 422 421 421 422 425 428 430 430 430 430 431 430 430 429 428 427 426 425 425 425 424 423 423 423 424 424 424 422 419 416 412 409 408 408 409 411 412 414 417 420 422 424 425 427 430 431 431 430 429 427 424 422 420 419 418 416 416 417 418 417 417 418 420 423 426 429 431 431 433 434 435 434 432 430 429 428 427 426 424 422 421 421 421 422 424 425 424 423 421 420 420 421 422 423 423 422 421 420 419 418 418 419 420 421 422 422 422 422 422 422 422 423 424 427 430 432 433 434 435 435 436 436 437 437 438 437 437 437 438 438 437 435 434 431 428 426 424 422 419 415 411 408 406 405 405 406 407 409 411 414 418 420 422 423 425 427 430 431 432 433 434 435 435 435 435 435 433 431 428 425 422 420 417 415 414 413 412 409 406 406 406 405 405 405 406 408 410 412 415 417 418 419 419 420 420 420 419 420 420 419 418 415 414 414 413 412 410 409 407 406 406 403 400 398 398 398 399 398 398 398 400 403 404 404 403 403 403 402 400 400 402 405 409 412 414 415 417 417 417 416 417 418 417 417 417 416 415 414 413 412 410 407 405 405 406 407 408 409 408 409 409 408 408 408 408 410 410 410 410 410 412 417 420 423 425 427 429 430 432 433 435 437 438 438 439 440 440 441 442 443 444 446 447 448 449 452 454 454 454 454 454 454 454 454 454 453 453 453 454 454 455 456 456 456 457 458 460 462 465 466 467 469 471 472 474 474 472 470 469 470 471 472 473 474 476 478 479 480 480 481 481 480 477 475 475 472 469 467 466 467 471 474 475 476 477 478 480 480 481 482 483 483 484 484 485 486 488 489 490 491 491 491 491 493 494 495 496 496 496 495 494 493 493 493 492 491 489 486 485 485 482 480 478 478 478 478 480 481 483 484 484 485 486 489 490 490 490 490 490 489 488 488 487 486 485 484 482 481 479 478 476 474
369 371 373 376 378 380 381 382 383 383 382 380 378 378 378 378 377 375 372 370 369 367 364 359 355 351 349 348 348 348 348 348 348 348 348 348 348 348 348 349 351 354 359 365 372 376 378 377 377 376 375 375 375 375 374 374 373 372 369 364 360 358 357 357 357 357 358 359 361 363 366 369 371 373 373 372 373 375 378 381 383 385 386 388 390 391 392 393 392 392 393 393 392 389 387 385 384 382 379 377 376 376 375 376 378 382 384 388 392 398 405 409 411 412 413 414 416 419 423 425 426 428 429 429 429 429 429 429 428 426 422 418 416 412 407 404 405 409 414 418 420 423 426 428 429 429 428 427 426 426 424 421 418 415 413 412 413 415 417 420 422 423 423 423 424 424 424 424 424 424 423 423 423 423 422 421 421 422 424 426 428 429 429 430 430 430 429 428 428 427 426 424 423 423 422 421 422 422 424 425 423 421 419 416 412 409 407 407 407 409 410 411 414 417 420 423 423 425 427 428 429 429 428 426 423 421 419 418 417 416 416 416 417 418 419 420 422 425 428 430 431 432 433 435 435 435 433 431 429 429 427 426 425 424 423 423 423 425 426 426 426 424 423 422 422 422 423 424 424 424 423 421 420 420 420 420 422 423 424 425 425 425 425 425 425 425 426 429 431 432 433 435 436 436 436 436 438 438 438 437 437 437 438 438 436 435 434 432 429 426 423 420 418 415 411 408 407 407 407 408 410 412 414 416 419 421 422 423 426 429 432 433 434 434 436 436 436 436 436 435 434 432 428 425 422 420 418 416 414 413 413 410 407 406 405 406 406 407 408 410 412 414 416 419 420 421 422 422 422 421 422 422 422 420 418 415 414 413 413 412 411 409 408 406 406 403 401 399 398 398 398 398 398 398 401 403 405 406 407 406 404 403 402 402 404 406 410 413 415 416 417 418 417 417 417 418 417 417 417 416 415 415 414 412 409 406 405 405 407 408 409 410 410 410 410 410 409 408 408 410 410 410 410 410 413 416 419 422 423 426 428 429 431 432 434 435 436 437 438 439 441 442 443 443 444 445 447 448 450 452 454 454 454 454 455 455 456 456 456 455 455 455 455 456 457 458 459 459 459 460 463 466 468 468 469 470 472 474 476 476 475 473 471 471 471 473 475 478 480 482 483 483 483 482 482 481 478 477 476 474 473 471 471 471 472 474 476 477 479 480 480 481 482 483 484 484 484 484 485 486 488 489 490 491 491 490 490 492 494 495 495 495 495 495 495 495 495 495 494 493 490 487 487 486 484 480 478 477 476 477 478 479 481 482 483 484 486 489 491 492 492 491 489 487 486 486 486 485 484 483 482 480 478 477 475 472
369 371 373 375 378 379 381 382 382 382 381 380 379 379 379 379 378 376 374 371 369 366 364 361 357 352 348 348 348 348 348 348 348 348 348 348 348 348 349 349 350 352 355 361 367 372 375 375 375 374 373 373 373 373 372 371 369 367 362 357 355 355 355 355 355 356 358 361 363 365 367 369 370 370 371 372 373 375 378 381 383 385 385 387 388 389 391 392 392 392 392 392 390 387 385 383 382 379 377 375 374 374 374 374 376 380 383 386 390 396 404 409 411 411 412 413 414 418 421 422 423 425 427 427 427 427 426 426 425 423 420 416 413 410 405 404 406 410 413 416 419 422 425 427 427 427 426 425 424 424 422 418 415 413 412 412 414 416 418 419 420 421 422 422 423 423 424 424 423 422 421 422 421 421 420 420 421 422 423 426 427 428 428 428 429 429 429 428 427 425 424 422 420 420 420 420 421 422 424 424 423 420 417 415 412 409 407 407 407 407 408 410 412 416 419 422 422 423 425 426 427 427 426 424 421 419 418 416 416 416 416 417 419 420 422 424 424 426 429 432 433 434 435 435 435 435 434 432 430 430 428 427 427 427 425 425 425 426 427 427 426 424 423 423 423 424 424 424 425 425 424 423 421 421 421 422 423 425 427 428 428 428 428 428 428 428 429 431 433 433 433 435 436 437 436 437 438 439 439 439 438 437 438 438 436 434 432 431 429 426 422 419 417 415 412 409 408 408 408 409 411 414 415 417 419 421 423 425 427 431 433 434 435 436 437 437 437 437 436 435 434 433 430 426 423 420 418 416 414 413 412 411 408 406 406 407 408 408 410 412 414 416 419 421 422 423 423 423 423 422 423 424 423 421 419 416 414 413 413 412 411 409 407 405 404 402 401 400 400 399 398 398 398 398 400 402 405 408 410 410 408 406 405 404 406 408 410 413 416 417 417 417 417 417 418 419 419 419 419 417 416 414 413 411 408 406 406 406 407 408 410 411 411 412 412 411 410 408 409 410 410 410 410 410 412 414 417 420 422 424 426 427 429 431 432 433 435 437 437 439 441 442 442 443 444 446 448 450 451 452 453 454 455 456 456 457 457 458 458 458 457 456 457 458 459 460 462 463 462 463 466 468 470 471 472 473 475 477 478 478 478 476 474 473 473 474 478 481 483 485 485 485 484 483 482 480 478 476 475 474 474 473 473 472 473 476 477 479 481 481 481 481 482 484 484 484 484 484 485 486 488 489 489 490 490 490 490 491 493 493 494 494 494 494 494 494 495 495 495 493 490 489 489 488 485 481 478 476 476 476 478 479 479 480 480 482 485 489 491 492 493 491 488 485 484 484 483 482 481 481 480 478 477 476 473 471
369 371 373 375 377 379 380 381 382 382 381 380 380 379 379 379 379 377 374 372 370 367 365 362 358 353 348 348 348 348 348 348 348 348 349 350 350 349 349 349 349 350 352 356 362 368 371 372 372 371 370 370 371 370 370 367 364 361 357 355 355 355 355 355 355 356 359 362 365 367 369 369 369 369 370 372 374 376 378 380 382 384 385 385 387 388 389 391 391 391 391 390 388 385 383 381 379 377 374 373 374 374 374 374 374 378 382 385 389 395 402 407 409 410 412 412 414 416 418 419 420 423 425 425 425 424 423 422 421 419 416 413 410 407 404 403 405 409 412 415 418 420 422 424 425 424 424 423 422 422 420 416 413 412 411 412 413 415 417 418 418 419 419 420 421 423 424 423 422 421 420 420 419 419 418 418 419 421 423 426 427 427 427 427 428 428 428 427 425 423 421 419 418 418 418 419 420 422 423 424 422 419 417 415 412 409 407 407 407 407 408 409 413 417 419 422 422 423 424 425 425 425 424 421 418 416 416 416 417 416 417 419 420 421 424 426 426 428 431 434 435 436 435 435 435 435 434 433 431 431 431 430 430 429 428 427 427 427 427 427 425 424 423 424 424 425 425 425 426 426 425 424 423 423 423 425 427 429 430 431 431 431 432 432 432 432 431 433 434 434 435 436 437 437 438 439 440 441 441 441 440 439 438 438 436 433 432 430 428 426 423 420 417 415 412 410 408 408 408 409 412 415 417 419 421 424 425 427 430 433 434 435 435 436 437 438 438 437 436 435 434 433 431 428 424 421 418 416 414 412 411 409 408 407 407 408 409 411 412 414 416 418 421 423 424 425 424 424 423 423 423 424 423 422 420 417 414 413 412 411 410 408 406 404 403 402 401 400 400 400 398 398 398 398 399 403 406 409 412 414 413 410 408 407 409 412 414 416 418 418 418 418 418 419 420 421 422 422 421 419 417 415 412 409 407 407 407 407 408 409 410 411 412 413 413 412 410 408 408 410 411 410 410 410 411 413 416 419 421 423 426 427 429 430 431 433 435 436 437 438 440 441 442 443 445 447 449 451 452 452 452 454 456 457 458 459 459 459 459 459 459 458 458 460 461 462 463 464 464 465 468 470 472 473 474 475 476 477 478 478 479 479 477 475 475 477 480 482 484 484 485 485 484 482 481 479 477 475 475 474 474 473 473 473 475 478 479 481 482 482 482 482 483 484 484 484 484 485 485 486 487 488 488 488 489 489 490 491 492 492 493 493 493 494 495 495 494 494 494 493 492 491 491 490 486 483 480 477 476 476 477 478 478 478 479 480 483 487 489 490 490 487 484 482 481 480 479 479 480 479 478 476 475 474 473 470
370 373 375 377 377 378 379 381 382 383 382 381 380 380 380 380 379 378 375 373 371 369 366 363 359 353 348 348 348 348 348 348 349 349 351 352 351 349 349 349 349 349 350 353 358 363 367 369 369 368 369 369 369 369 368 364 360 356 355 355 355 355 355 355 355 356 359 362 366 368 369 369 369 369 370 372 375 376 378 379 381 383 383 384 385 386 388 389 389 389 388 387 384 381 379 378 376 374 372 372 374 375 374 374 376 380 384 387 390 393 399 404 407 410 411 412 413 413 415 416 417 420 422 423 422 420 419 418 416 414 411 409 407 405 402 402 404 408 412 416 418 419 420 421 422 422 422 421 420 419 417 414 411 410 411 412 413 415 416 418 418 418 418 419 420 422 423 423 422 421 420 419 418 417 416 416 417 419 422 425 426 426 426 427 427 427 427 427 424 422 420 418 417 417 417 418 419 420 421 422 421 420 418 415 412 409 408 408 408 408 407 409 413 416 419 421 422 422 422 423 423 423 421 418 415 414 415 417 418 418 418 420 421 421 424 426 427 429 432 435 436 436 436 435 435 435 435 434 433 433 433 432 431 430 429 429 429 428 428 427 426 425 424 425 425 426 427 427 427 427 427 426 426 426 427 428 430 431 432 434 434 434 435 435 435 434 434 434 435 436 437 439 440 440 441 442 443 443 444 443 442 440 439 438 436 434 433 431 429 427 425 421 419 417 414 411 410 409 408 409 412 415 418 420 422 425 427 429 432 434 435 436 436 437 437 438 438 437 436 435 435 434 432 429 426 423 420 417 414 411 410 409 408 407 407 409 411 414 416 418 419 420 422 424 425 425 425 425 425 424 424 424 423 422 420 417 415 413 411 409 408 406 405 404 403 402 401 400 400 400 399 398 398 398 399 403 407 411 415 417 417 414 410 410 413 418 422 424 423 423 422 421 421 422 423 424 424 424 423 420 418 415 412 408 407 407 407 407 408 409 411 412 413 413 413 412 410 408 408 410 411 411 410 410 410 411 414 418 421 423 425 426 428 429 430 432 434 435 437 438 440 441 442 443 445 446 448 450 451 451 451 453 455 457 458 459 459 460 460 460 460 459 459 461 461 462 462 463 464 465 468 470 472 474 475 475 476 476 476 477 478 479 478 477 477 479 481 482 483 482 482 483 483 481 479 478 476 476 475 474 474 473 473 475 477 479 480 481 482 483 483 483 483 483 483 483 484 485 486 487 487 487 487 488 488 489 489 490 491 491 491 491 491 492 494 494 494 493 492 492 492 491 491 491 489 486 482 479 476 475 476 477 477 477 478 479 481 484 485 486 485 482 481 479 479 478 477 477 477 477 475 474 473 473 472 469
370 372 375 376 377 378 379 381 382 382 382 381 380 380 380 380 379 377 375 373 371 369 366 362 358 353 348 348 348 348 348 349 350 351 353 353 352 349 349 349 349 349 349 351 355 359 363 366 367 368 369 370 370 369 367 362 357 355 355 355 355 355 355 355 355 355 358 361 364 366 367 367 368 369 370 372 374 375 376 378 379 380 381 381 382 384 386 387 386 386 385 383 381 378 376 374 372 372 371 372 374 376 376 377 379 382 385 388 389 392 396 401 405 408 410 410 411 411 412 413 415 417 419 420 419 418 416 414 413 411 409 407 404 402 401 402 405 408 413 416 418 418 418 419 421 421 419 418 417 416 414 411 409 409 411 413 414 416 416 418 418 418 418 419 420 422 422 421 420 419 419 418 417 416 414 414 415 418 421 424 425 425 425 425 426 426 426 426 424 421 418 417 416 417 417 418 418 419 419 420 420 420 418 415 413 410 409 409 408 406 405 407 411 414 417 419 419 420 421 422 422 421 419 416 413 413 414 416 418 418 418 419 420 421 424 426 427 430 433 435 437 436 436 435 436 436 435 435 434 434 434 433 432 430 430 430 430 429 429 429 428 426 426 426 427 428 428 429 429 429 428 428 427 428 429 430 432 433 434 436 436 437 438 438 438 436 436 436 437 438 440 441 441 442 444 445 445 445 445 445 443 441 440 439 438 436 434 432 431 430 428 424 421 419 416 413 411 411 409 409 412 415 419 421 423 426 429 431 433 435 437 438 438 437 437 438 438 438 437 436 435 434 432 429 426 423 421 418 415 412 411 410 408 407 408 410 413 417 420 421 422 423 424 425 426 425 425 425 425 425 425 424 423 421 419 416 414 411 409 408 406 405 405 404 403 402 401 400 400 400 399 398 398 398 398 402 407 412 416 419 418 416 413 412 416 423 429 430 429 428 426 424 422 423 425 425 425 424 423 420 417 414 411 407 407 407 407 407 407 409 412 413 413 413 413 413 411 409 409 411 413 413 412 411 410 410 413 417 420 422 424 424 426 428 429 431 432 433 436 438 439 439 441 443 445 446 448 450 450 451 451 453 455 457 458 458 459 460 460 460 460 460 460 461 461 461 461 461 462 463 466 468 471 472 473 474 473 473 473 474 476 477 477 477 478 479 480 481 481 481 481 482 482 481 479 477 476 475 474 473 473 473 473 475 477 479 480 480 482 483 483 483 484 484 483 483 484 485 485 486 487 487 487 487 487 487 488 489 490 490 490 490 490 492 493 493 493 492 491 490 490 490 491 491 490 487 484 481 477 475 475 477 478 478 478 479 481 483 484 483 482 480 479 478 478 478 476 475 475 474 473 473 473 472 471 468
369 371 373 375 377 378 379 380 381 381 381 380 380 379 379 379 377 375 374 372 369 367 364 361 357 352 348 348 348 348 348 349 351 353 354 354 353 351 349 349 349 349 349 349 352 356 361 364 366 368 370 371 371 369 366 359 355 355 355 355 355 355 355 355 355 355 356 359 360 362 364 366 368 370 371 372 373 374 375 376 377 377 377 378 379 381 383 383 384 384 383 381 379 377 374 371 370 370 372 373 374 375 377 378 379 381 384 386 388 390 394 398 402 405 407 408 409 409 410 411 413 415 417 417 417 415 413 412 411 409 407 404 400 399 399 402 405 409 413 416 417 417 416 417 418 418 416 414 413 413 411 408 406 407 410 413 415 416 416 417 418 418 419 420 420 421 420 419 418 417 416 416 415 414 412 412 414 417 419 422 423 423 423 423 424 425 425 424 422 419 417 415 415 415 416 416 417 418 418 419 420 420 418 416 413 410 408 407 405 403 403 405 407 411 414 417 418 420 422 422 421 419 418 415 412 412 414 415 416 417 417 418 419 421 424 426 427 430 432 435 436 436 436 435 436 436 436 435 434 434 433 432 431 430 429 429 429 428 428 429 429 428 428 429 429 430 430 430 430 430 430 429 429 430 431 431 432 434 436 438 439 439 440 440 440 438 438 439 440 441 442 443 443 444 445 446 446 446 446 445 443 442 440 440 439 438 436 434 433 432 430 427 424 422 419 415 413 412 410 410 412 416 420 422 424 427 430 432 434 436 438 439 439 439 439 439 439 439 438 436 435 433 431 428 425 423 421 418 415 412 412 410 408 407 408 411 414 418 422 424 424 425 426 427 427 426 426 426 426 426 425 424 423 421 418 415 411 408 407 406 405 404 404 403 403 402 400 400 400 399 398 398 398 398 398 402 407 412 416 418 418 417 414 413 416 422 428 431 431 430 427 424 422 423 425 425 424 424 423 421 417 413 409 407 407 407 407 407 407 409 412 413 414 414 414 414 412 410 411 412 414 415 415 413 411 410 411 415 418 420 422 423 424 426 428 428 429 430 434 436 437 438 440 442 444 446 448 450 451 451 452 453 455 457 458 458 459 459 459 459 460 461 461 462 462 463 462 461 461 462 463 465 467 469 471 471 471 472 471 471 472 474 475 476 477 478 479 480 480 479 479 480 480 479 478 477 476 474 474 473 473 473 473 474 476 478 478 478 480 482 483 483 484 484 483 483 483 484 484 485 485 486 486 486 486 487 487 487 489 489 489 489 489 490 490 491 491 490 489 489 488 489 490 490 489 486 484 481 478 476 475 476 477 477 478 481 483 484 484 483 482 481 480 479 479 479 477 475 473 472 471 470 470 470 469 468
367 369 371 374 377 378 378 379 379 379 379 379 379 378 378 378 377 375 373 370 367 364 360 357 354 350 348 348 348 348 348 349 352 355 356 356 355 353 350 349 349 349 349 349 351 355 360 363 365 367 370 371 371 368 362 357 355 355 355 355 355 355 355 355 355 355 355 356 357 360 363 366 368 369 370 370 371 372 373 373 374 374 374 375 376 376 377 379 379 380 380 379 378 376 373 370 369 370 372 373 373 374 375 377 377 379 381 384 386 388 391 396 400 402 404 404 405 406 407 408 410 412 414 415 414 413 412 410 409 406 404 400 397 396 398 401 405 410 413 415 416 415 415 415 414 413 412 411 410 410 409 406 405 406 409 412 414 416 416 417 419 419 420 421 420 420 420 419 417 416 415 413 412 410 410 410 413 416 418 420 421 421 421 422 424 424 423 421 419 418 417 415 413 413 413 414 415 416 416 417 419 419 418 415 413 410 407 405 402 401 401 403 405 408 413 417 418 420 422 422 421 419 416 414 412 411 412 412 413 413 414 415 416 419 423 425 428 430 431 433 435 436 435 435 435 435 436 436 435 434 433 432 431 431 430 429 429 428 427 428 428 427 428 430 431 432 431 431 431 431 432 431 430 431 432 432 433 435 438 440 441 440 441 441 441 441 440 441 442 443 444 445 445 445 446 447 447 447 447 446 444 442 441 440 440 439 438 436 435 434 432 429 426 423 420 417 415 414 412 411 413 417 420 423 426 429 432 433 434 436 439 440 440 440 441 441 440 439 438 437 435 433 430 428 426 424 420 417 414 412 411 409 408 408 409 412 415 419 422 425 426 428 428 428 428 427 428 427 427 426 426 425 423 420 418 414 409 406 404 404 403 403 403 403 403 402 400 400 399 398 398 398 398 398 398 402 407 410 413 415 416 416 414 413 415 419 424 428 429 428 426 423 422 423 424 424 424 423 423 421 418 413 408 407 407 407 407 407 407 409 411 413 414 415 415 414 413 411 411 412 414 415 416 415 413 410 411 413 416 419 421 421 423 424 426 427 427 428 431 434 436 438 439 440 442 445 447 449 451 452 452 453 455 457 458 459 459 459 459 459 461 462 463 464 464 465 464 463 462 462 462 463 465 467 469 469 469 470 469 468 469 470 472 474 475 476 477 478 478 478 478 478 478 477 477 477 476 475 475 474 473 472 471 471 473 475 475 476 477 479 481 482 483 482 482 482 482 483 482 483 483 484 485 485 485 485 486 486 487 488 487 487 488 488 488 488 487 486 486 487 487 487 488 487 486 483 481 480 478 477 475 475 475 476 479 483 485 486 486 485 484 483 481 480 479 479 477 475 473 471 469 468 467 467 467 466
367 368 371 374 377 377 377 378 379 379 379 379 379 378 377 377 376 373 370 368 365 361 357 353 350 348 348 348 348 348 348 350 354 356 357 357 357 355 352 349 349 349 349 350 351 353 358 362 364 366 368 369 369 365 359 355 355 355 355 355 355 355 355 355 355 355 355 355 355 359 363 366 368 368 368 368 368 369 370 371 371 372 372 372 372 373 373 374 375 377 376 376 375 373 371 369 369 370 371 371 371 372 374 375 375 376 379 381 384 386 390 395 398 399 399 399 400 402 405 407 408 409 411 412 411 410 409 408 406 403 400 396 395 395 397 401 405 409 412 413 414 414 413 412 411 409 408 408 407 407 406 405 405 407 410 411 413 415 417 418 419 420 421 421 421 420 421 420 417 415 414 412 410 408 407 409 412 414 416 418 419 420 420 421 422 422 421 419 419 418 417 415 413 412 412 412 413 414 414 415 417 417 417 414 411 409 406 403 401 401 401 402 404 407 411 414 416 419 421 422 421 418 415 413 411 410 408 408 408 409 410 412 414 417 420 423 426 428 430 433 435 436 435 435 436 436 436 436 434 434 433 433 432 432 431 429 428 428 427 426 427 427 428 430 432 433 433 433 433 433 434 433 432 432 433 434 435 436 439 441 442 442 442 442 442 442 442 442 442 443 444 445 446 447 447 448 448 448 449 448 446 444 442 441 440 440 440 438 436 434 432 430 427 424 421 419 416 416 414 413 415 418 421 424 427 431 433 435 436 438 439 440 441 442 443 443 441 440 440 438 435 434 432 429 426 424 421 417 414 411 410 409 409 409 411 414 417 419 422 425 428 429 429 429 429 428 429 428 428 427 426 425 423 421 419 415 410 406 404 403 403 403 403 403 403 401 400 400 400 399 399 398 398 398 398 401 404 407 408 409 411 412 412 411 412 415 419 422 425 425 423 420 419 420 421 422 422 422 421 420 417 412 409 407 407 407 407 407 407 408 411 413 414 414 415 414 412 411 411 411 412 414 416 416 414 411 411 412 414 417 419 419 421 423 424 425 425 427 429 432 434 437 439 440 441 444 445 447 450 451 452 454 455 457 458 459 459 459 459 460 462 463 464 465 465 466 466 465 464 463 462 463 464 465 466 467 467 467 465 465 466 467 469 471 472 473 474 476 477 478 478 478 477 478 478 478 477 475 475 474 472 470 468 467 468 471 473 475 476 478 479 480 481 481 481 481 481 481 480 481 481 482 483 483 484 484 484 485 485 486 486 486 487 486 485 484 483 482 482 483 485 485 485 485 483 481 479 478 477 476 475 475 476 477 480 484 487 488 488 488 487 485 482 480 479 478 476 475 472 470 468 467 466 465 464 464
368 369 371 374 376 377 377 378 379 379 379 378 377 376 376 375 374 371 368 366 364 360 356 351 348 348 348 348 348 348 351 354 357 358 358 358 358 357 355 351 349 349 350 350 350 353 357 362 363 365 366 367 366 362 356 355 355 355 355 355 356 356 355 355 355 355 355 355 355 356 361 365 366 367 367 367 367 368 369 370 370 370 370 370 370 370 371 372 373 374 373 373 372 371 370 369 370 370 370 370 371 372 372 372 374 376 378 380 383 385 389 393 396 397 396 396 397 399 401 403 404 405 407 408 407 406 406 404 401 397 395 393 393 394 396 400 404 407 409 410 412 413 412 411 408 406 406 406 406 406 405 405 405 407 410 411 412 413 415 416 417 419 420 421 421 421 421 419 417 415 414 412 409 406 406 407 410 413 415 416 418 419 419 420 420 420 419 418 418 417 415 412 412 412 412 412 412 413 414 415 416 417 416 414 411 409 406 403 401 401 401 401 403 406 409 412 414 417 420 420 419 416 414 412 410 408 405 404 404 406 407 410 413 416 418 421 423 425 428 432 435 436 435 435 436 436 436 435 434 434 432 432 432 432 430 428 427 426 426 425 426 428 429 431 433 434 434 435 435 436 436 434 433 433 434 436 436 437 439 441 442 443 443 443 442 442 441 442 442 443 444 446 447 447 448 448 448 448 449 449 447 445 444 443 442 441 441 439 437 435 433 430 428 426 423 420 418 417 416 415 416 419 423 426 428 430 434 436 437 438 439 440 442 443 444 444 442 441 441 439 436 434 432 429 425 423 421 418 415 412 411 410 409 410 412 416 418 420 422 425 428 429 429 429 429 429 429 429 429 428 427 425 423 421 419 415 411 408 405 404 404 403 403 403 403 402 400 400 400 401 401 400 399 398 398 399 401 402 402 403 405 407 409 409 409 411 413 415 418 418 417 416 416 417 418 420 420 420 419 418 416 413 410 407 407 407 407 407 407 408 410 412 414 415 415 413 411 411 411 411 411 412 415 416 415 413 411 411 412 414 416 417 419 421 422 423 424 426 429 431 434 437 439 440 441 443 445 447 449 451 452 454 456 457 458 459 459 460 460 460 462 464 465 466 466 466 466 466 465 463 462 462 463 463 464 465 465 464 462 463 464 466 467 469 471 472 474 475 477 478 478 479 479 479 479 478 477 475 475 473 471 468 465 463 465 468 472 475 477 478 479 479 479 480 480 480 479 479 479 479 480 481 481 482 483 483 482 482 482 482 483 483 484 484 483 482 480 478 478 480 482 482 482 481 480 478 476 475 475 475 476 477 479 480 483 485 488 490 490 489 488 486 483 481 479 479 477 476 474 471 469 468 466 464 463 462
